13.290227 2.337149 5.285781
13.407810 2.715155 5.246063
15.786447 3.348893 6.866609
15.696603 3.434234 6.801670
12.029856 9.839355 6.927601
3.362605 11.496166 3.977420
4.033430 12.765765 3.090517
4.079640 12.953683 3.102694
4.096826 13.152169 3.116327
0.920493 6.390410 7.535443
13.541978 3.206994 5.138858
13.632226 3.219004 5.253649
13.401395 2.304360 5.499703
13.349794 2.327450 5.389057
4.605904 2.413840 8.679588
4.687248 2.340917 8.617476
12.156687 0.688682 5.361246
12.053513 0.519939 5.351630
0.498836 8.639146 10.173743
9.934976 8.580788 4.845747
9.815917 8.561870 4.878357
9.811076 8.685314 4.962480
4.089211 13.359099 3.133203
4.030113 13.568212 3.148653
9.953926 8.841832 5.027089
9.935968 8.711318 4.937166
9.822320 8.815440 5.053148
10.130030 10.051042 6.473802
10.138898 9.975395 6.348373
10.047195 9.969722 6.356921
0.680976 8.111613 8.764818
0.794619 8.043741 8.872468
0.445656 9.096634 9.895032
0.420815 9.094848 9.823428
1.188075 7.426454 9.658431
7.042247 15.389933 5.754841
1.003095 5.883823 9.588755
0.952603 5.871902 9.478174
12.741810 2.881534 4.406456
1.226068 7.616449 9.538994
13.711903 5.236996 4.992058
13.791383 5.044014 5.124727
6.124247 3.395147 5.299967
4.069152 12.038279 5.537938
14.192854 5.249507 5.567660
7.432257 7.036658 4.311129
0.970761 7.027377 7.436305
9.577446 0.265444 4.385564
9.655812 0.255539 4.394476
9.570969 0.092519 4.687303
4.111971 12.335586 5.047094
2.351447 5.630759 5.270944
2.338630 5.453457 5.291894
2.175954 5.471457 5.441110
9.084716 0.087167 4.870982
8.984480 0.091009 4.847741
9.066931 0.089542 4.567339
5.325560 10.459604 6.988033
5.382663 10.406635 7.072345
12.827839 1.286249 5.959381
12.374717 0.865617 5.862769
0.359154 9.896585 8.584193
4.423339 1.596157 8.899927
12.832662 3.559923 4.513662
12.899198 3.496091 4.604545
9.059960 7.147506 4.300246
6.770637 0.192811 9.835696
7.261892 0.523410 9.969880
0.667919 10.208348 10.628094
2.208156 8.303057 6.209023
2.129075 8.314263 6.307503
9.481533 9.311045 5.547087
9.485348 9.508607 5.697307
9.479687 9.405713 5.625684
9.349730 9.515455 5.694927
3.951319 1.751881 6.414728
3.870408 1.654392 6.342966
0.567808 10.348841 8.069771
1.834363 14.344954 2.847749
11.757957 7.752468 4.950066
11.739892 7.706539 4.875057
11.641745 7.690631 4.845426
7.137332 9.378729 6.010840
13.771550 4.175246 5.318904
13.753477 4.298823 5.329019
2.041995 3.827526 7.382531
1.069330 7.725145 7.785365
0.790401 8.481416 7.366541
0.794596 8.646265 7.269829
1.131551 8.015584 7.408254
0.591190 9.127845 7.577185
0.665908 9.261403 7.467626
2.789671 1.396102 7.254476
2.742795 1.314155 7.164759
2.762941 1.340833 7.302458
4.206116 2.466328 8.072496
0.539235 8.994001 7.698364
0.526809 9.114704 7.690923
1.296125 7.795938 9.547176
4.058786 11.922971 6.053419
4.053918 11.940456 6.153590
14.045780 3.509725 5.655487
14.057733 3.384089 5.755424
13.258158 2.170259 5.310875
8.337096 10.003324 7.049149
1.294109 7.847615 9.551706
9.067969 7.151528 4.204807
9.095281 7.095775 4.064986
8.981023 7.092748 4.084966
6.073536 10.049384 6.859130
6.192502 10.041591 6.908141
6.220549 9.992848 6.753845
13.512064 3.052744 5.141101
13.596841 3.066475 5.254896
1.193010 8.027407 7.284970
1.117462 8.146016 7.278362
0.929721 6.054750 7.347040
13.994159 4.565641 5.616894
14.093575 4.598011 5.721587
14.129560 4.480704 5.728730
14.025013 4.470761 5.614259
13.725233 3.082624 5.441531
4.393423 1.727391 8.722454
4.405619 1.819505 8.606971
4.328750 1.709119 8.702411
13.668091 3.078622 5.349148
0.825456 10.783508 7.967837
4.665105 1.941416 8.795747
6.384880 11.827389 6.515201
6.463108 11.914236 6.368028
1.255824 7.895246 9.524749
1.168986 7.971174 9.502030
1.212863 7.963754 9.606568
1.155006 8.003153 9.566155
14.909247 4.381433 7.399124
14.885902 4.416924 7.302015
9.472409 0.262563 4.377688
9.461286 0.088002 4.670913
13.287377 1.082834 10.112811
6.225372 0.171041 11.167235
6.124694 0.173436 11.174616
6.208006 0.151382 10.951454
10.758805 6.775497 3.924712
13.975838 7.382438 6.080275
13.929787 7.376925 5.989432
8.295988 0.093604 4.961582
8.233679 0.172329 5.182064
9.977768 9.893713 6.218023
10.055682 9.891840 6.223780
9.974782 9.797974 6.092609
10.977054 9.690222 5.994504
11.095018 9.549302 5.796323
11.109667 9.451924 5.657378
10.996209 9.470541 5.645369
2.436277 4.697577 5.566086
2.367809 4.848388 5.566642
2.488177 4.843819 5.440516
4.070485 12.213824 5.560800
1.375679 11.740589 7.250755
13.579501 8.571861 6.819919
13.578824 8.499228 6.701801
13.480506 8.645551 6.748911
15.496712 1.402435 8.320298
13.623026 4.635446 5.146842
3.708406 8.489800 5.376592
3.573521 8.441254 5.417940
3.585688 8.581826 5.505240
0.719403 9.011289 7.303844
14.205417 6.773594 6.157700
10.238172 7.175501 4.449418
10.339553 7.175092 4.467860
10.336841 7.138124 4.447389
12.788799 1.279930 5.866715
9.368090 0.257464 4.354621
9.362101 0.093427 4.641877
12.271853 0.694638 5.880971
0.573307 11.720990 8.559988
13.445992 6.596200 5.221919
13.530498 6.557631 5.270949
13.441407 6.482482 5.118203
4.197556 9.863435 6.002103
4.190318 9.726610 5.968699
12.187664 0.534792 11.161401
4.172118 2.086734 10.228142
4.164203 2.091551 10.341660
15.912452 2.082596 9.235948
13.883521 5.048740 5.229146
4.083659 2.204837 7.893083
12.799346 3.680253 4.447259
12.898485 3.691942 4.509758
13.802031 4.881925 5.237775
13.709812 4.640998 5.246788
12.902838 3.820805 4.473516
14.283092 5.593557 5.670098
14.256309 5.743891 5.661783
14.322356 5.737732 5.770766
3.446450 0.766304 5.959826
3.555773 0.571366 5.889760
0.996383 6.368573 7.353126
6.937352 7.537062 4.469019
4.022684 12.124926 6.169429
4.043167 11.953417 6.245607
0.396556 8.765757 9.508028
4.061318 11.758607 6.225436
0.482544 8.635578 11.092983
0.520047 8.635959 11.217628
0.470121 8.817630 11.235052
3.975059 12.278829 6.264966
6.372475 13.487070 5.248155
3.448429 1.642269 10.725837
3.459095 1.632656 10.847550
3.395948 8.679914 5.679896
3.413538 8.802171 5.752727
3.510031 8.811245 5.726175
4.043986 11.554494 6.198171
7.113131 0.144541 8.658144
6.963448 0.106138 8.657500
7.042294 0.108795 8.482435
7.036808 0.142339 8.837073
6.955724 0.144292 8.988238
6.899085 0.107218 8.835305
0.501124 8.526734 9.417405
7.287881 0.503749 9.630105
7.278383 0.483389 9.483177
0.332016 8.940501 9.499941
0.380615 9.887987 8.382934
13.976759 3.376232 5.639322
14.018274 3.242325 5.746099
1.055376 11.309602 7.746735
0.357723 9.283874 8.161395
13.200668 1.985784 5.321554
13.163019 1.995896 5.210660
13.121590 1.802021 5.337015
10.589281 10.075062 6.461821
10.708088 10.066385 6.472406
10.616662 9.998979 6.337146
13.433024 5.797880 4.852711
13.338540 5.848633 4.802004
13.471134 5.974060 4.906233
10.635516 9.813293 6.055404
10.754594 9.804593 6.060186
10.639843 9.715295 5.948745
7.040189 9.760527 7.073506
7.115383 9.725709 6.977142
0.400447 9.335167 10.950830
4.574704 2.404727 9.042850
4.576697 2.440219 9.023726
4.638985 2.334326 8.863083
12.716255 3.552599 4.441725
13.519415 2.878470 5.240577
4.546631 2.681181 10.034263
4.502619 2.786801 9.929312
1.051048 8.135150 7.401323
14.152536 4.339158 5.728315
14.064327 4.335730 5.621822
5.997793 1.482241 4.199497
6.171828 1.667996 4.230366
6.184844 1.557165 4.100387
13.817358 6.630189 5.625381
13.747034 6.695652 5.563062
0.300164 9.099494 9.502311
4.709751 2.168300 8.682892
4.065037 12.401226 5.588079
4.130227 0.530035 11.899732
4.151471 0.406758 11.846127
4.016846 12.756128 2.986981
4.064912 12.949144 2.997199
4.083543 13.142231 3.011649
4.081931 13.344426 3.030674
9.263361 0.285182 4.317984
9.255319 0.106195 4.590042
4.206245 13.911244 0.997232
0.543485 9.916150 10.436496
0.604086 10.074319 10.443189
4.034305 12.607165 5.601123
0.617752 10.073217 10.740507
9.188228 0.322223 4.297675
9.149004 0.095768 4.575718
14.539736 5.735091 6.212396
14.541552 5.897374 6.218556
9.820255 6.247259 3.233126
0.284909 9.277030 9.499600
9.349673 9.413281 5.626424
12.279908 1.389363 4.743258
12.255906 0.524499 11.027545
12.105615 0.461181 11.159768
9.261228 14.185205 4.020070
13.797868 4.024055 5.312749
0.451046 10.184347 8.396657
13.810832 3.837535 5.309060
13.738779 4.757891 5.239096
13.833166 4.755725 5.343621
13.905717 4.882924 5.349493
13.994430 4.889841 5.454918
7.217984 0.490932 9.637893
14.340845 5.584445 5.778849
8.248898 0.080484 4.415448
8.142452 0.065606 4.413851
7.956016 0.536571 6.816036
7.851393 0.531988 6.800469
11.413588 0.147858 5.185353
11.595810 0.215654 5.141832
6.571243 5.822349 4.216420
6.620693 5.949283 4.226728
1.351402 10.702889 6.818433
1.458894 10.711369 6.722204
1.402010 10.569071 6.720145
4.145763 14.458394 1.189488
4.143242 14.284877 1.291373
4.067686 14.672269 1.318306
4.123270 14.460125 1.301008
12.188446 0.554146 5.985256
12.200396 0.549261 6.084258
12.289314 0.690106 5.977162
12.325364 0.691628 6.073313
12.408102 0.869909 5.956762
12.437854 0.865760 6.040837
12.456054 0.995560 5.941186
12.490146 0.995536 6.021893
14.279556 3.687434 5.989598
14.345532 3.694976 6.103311
14.308552 3.544288 6.106916
14.242721 3.537686 5.990674
14.309014 3.848533 5.984352
14.372043 3.850594 6.095880
6.919111 0.474117 10.303169
6.974183 0.492706 10.161448
10.763304 10.260307 6.914588
3.578689 0.160791 8.765388
3.689767 0.128384 8.789804
3.529693 0.242081 8.899150
0.930400 7.312653 7.753683
3.882495 11.770345 4.360800
0.562163 10.975180 8.946139
4.067771 12.155596 5.034581
13.862874 2.929424 5.652260
13.900699 3.092032 5.635801
13.935052 3.237912 5.634714
0.391683 8.825816 10.839765
12.257507 0.842405 5.371636
0.622669 11.949307 8.336358
12.450969 1.173443 5.364989
12.976176 1.610696 5.332100
0.716171 8.499060 7.489965
0.569823 11.475304 9.562275
0.594608 11.611845 9.613535
0.558927 11.628103 9.470305
14.181987 4.181730 5.740741
14.090770 4.182784 5.626509
7.387614 0.191738 11.855687
7.291042 0.195853 11.828844
8.784307 7.029780 3.943268
8.814470 6.954133 3.787036
8.684071 6.946958 3.802552
8.213622 15.917797 4.572550
10.773101 0.206502 4.708737
10.840814 0.141989 4.858649
10.722874 0.122050 4.869590
3.527961 0.844733 9.017411
3.445222 0.556426 9.070940
3.596934 0.820820 9.113324
2.074688 7.606629 10.652572
2.004516 7.579051 10.529498
1.968392 7.615781 10.534104
13.102656 1.985443 5.092552
13.167504 2.182742 5.086611
7.535230 6.820945 4.279938
7.658844 6.856038 4.245688
7.536069 6.793861 4.171182
4.064027 12.142149 4.730551
4.109343 12.314400 4.738295
2.868410 11.818839 2.495591
4.056743 13.114113 4.786244
4.116747 12.905986 4.771905
14.110670 8.095994 8.112742
0.796334 11.276260 10.362121
11.175831 0.535179 4.473651
11.227163 0.675244 4.448184
11.233203 0.343713 4.645526
0.444704 8.652083 10.620160
9.372003 14.157154 4.797138
14.518247 6.070757 6.221500
0.920198 6.305702 7.540222
14.111692 4.025941 5.632753
14.123049 3.854475 5.645185
1.747743 4.231830 9.166132
11.569363 9.820594 6.496252
11.572785 9.747509 6.384389
11.478027 9.847613 6.462629
12.574281 0.174702 7.491483
8.698576 0.596817 5.597050
8.605380 0.599773 5.573250
6.310090 0.155018 10.968354
6.126054 0.246735 11.367643
6.034426 0.264162 11.378063
12.324231 0.532449 10.909918
12.160520 0.424678 10.984972
4.129733 1.481515 8.897238
4.021970 1.452927 8.861781
14.215300 5.910153 5.649973
14.286971 5.912338 5.755987
1.183394 5.166835 7.387160
13.802308 4.641151 5.346758
10.409547 6.231421 3.432462
10.325676 6.255313 3.410428
10.336600 6.418320 3.479718
6.423009 7.960820 4.727949
3.329683 0.763888 5.998719
6.131997 3.538519 5.251078
12.575110 1.111377 5.938986
12.645281 1.127951 6.024514
14.173152 3.247352 5.994407
14.210758 3.391639 5.990620
14.220456 3.243579 6.113899
12.856833 1.292306 6.030530
14.267642 3.393268 6.107128
7.570909 0.524396 7.474733
7.469214 0.519804 7.458105
7.540738 0.528039 7.288562
0.693729 9.966538 7.479470
1.116288 7.889289 7.777331
13.784489 2.754117 5.667502
13.674981 2.580225 5.677204
13.479273 2.277383 5.704738
13.583141 2.420081 5.692966
13.518762 2.266397 5.796940
1.142388 4.958011 8.919027
12.361685 1.005303 5.376931
1.985947 13.507117 4.767817
6.538922 2.558726 5.646681
6.533255 2.508999 5.617429
6.523949 2.451229 5.664625
1.009498 11.400699 7.730812
0.849787 6.861510 7.654369
0.686428 8.223721 10.677024
0.637859 8.290342 10.842990
4.036963 12.108679 6.073840
14.437736 5.418945 6.004150
14.477089 5.421650 6.105315
14.453772 5.263044 6.100690
14.411822 5.258146 6.005279
13.369025 1.967194 5.837224
13.395996 1.967511 5.920886
11.282284 0.186841 4.921069
13.289782 0.836920 9.909179
13.191372 0.779279 9.895829
3.998026 12.748603 2.890991
4.049668 12.940868 2.902603
4.069330 13.131425 2.912036
4.080107 13.331961 2.931936
4.049687 13.547627 2.953022
9.360037 14.336756 4.710179
3.978124 13.298721 4.690750
3.922273 13.385530 4.676159
0.323455 8.790198 9.049007
1.093460 10.861153 7.184342
1.152403 11.179901 7.314286
1.130288 11.008782 7.188246
0.291617 9.435238 9.496808
1.074967 5.332175 8.994642
1.055056 5.338792 8.878114
1.092762 5.145847 8.914330
14.508144 4.329087 6.297103
14.459987 4.330788 6.188927
14.493430 4.473350 6.282252
0.302919 9.589257 9.491093
1.025704 7.164369 7.424428
4.140415 12.505193 4.745667
4.016480 2.789526 6.815569
4.008879 2.743083 6.929828
3.975500 2.771001 6.842511
11.324465 0.424103 4.608680
12.361007 0.529832 10.796437
12.524135 0.716089 10.828673
1.825538 14.178420 3.149302
1.842651 14.102194 3.333614
1.787929 14.015991 3.236747
12.415443 1.465030 4.975167
12.389024 1.558275 4.808390
12.470157 1.553408 4.856980
6.226912 0.129501 10.091795
6.119280 0.133660 10.066741
14.233049 6.080440 5.736248
14.135747 5.927213 5.543362
14.042765 5.958637 5.435246
14.044060 6.099406 5.509511
14.158489 6.087117 5.640586
3.340603 1.863507 7.462563
6.573069 2.380218 5.534299
6.581445 2.255529 5.545404
6.686336 7.052453 4.448098
0.536721 8.469768 10.399033
0.639533 9.554260 7.474114
1.072517 7.570159 7.559114
14.138541 3.094806 6.004862
14.174791 3.091054 6.117983
13.032647 1.462579 6.026325
14.126512 2.935504 6.126649
13.999769 2.765494 6.004037
14.078096 2.930779 6.008192
14.050411 2.776001 6.116006
14.158457 5.074813 5.573815
14.087574 4.904994 5.569723
12.005506 0.648960 11.444782
1.068115 5.275479 8.894940
13.403519 2.130957 5.719936
13.450042 2.128002 5.814701
4.247633 3.989389 11.220272
13.339935 1.972906 5.740487
13.248119 1.804239 5.757431
14.197405 3.860485 5.761971
14.204496 4.019898 5.753205
3.995666 12.299321 6.097676
14.492465 5.579493 6.104731
4.670838 2.078466 8.638428
14.418680 5.115233 6.092576
13.485124 2.118692 5.894618
4.270147 0.412289 11.871697
4.261205 0.514192 11.922282
4.139163 12.703646 4.758268
4.709735 2.270703 8.636027
4.679876 2.279373 8.596559
6.139691 3.682406 5.178231
3.361676 7.901298 5.334946
3.361830 8.033850 5.376805
3.454691 8.044294 5.314286
10.617068 0.117403 4.853318
4.150938 12.694709 4.647978
4.139525 12.497298 4.638374
4.129885 12.896933 4.664725
7.360123 0.499188 7.995762
9.349619 0.542277 9.109464
9.250868 0.545798 9.084751
9.312133 0.537785 8.920023
1.047158 5.343321 7.930952
6.591964 0.182078 11.370759
6.470556 0.198138 11.573759
6.457282 0.174973 11.377685
4.107503 12.310774 4.633555
1.453435 7.832925 9.849959
1.545986 7.817600 9.940613
1.429615 7.880542 9.910963
3.980835 12.740037 2.795633
6.033433 0.422078 11.552591
0.329026 9.751715 9.485995
11.968312 5.890567 4.040301
12.047334 5.845446 4.076701
11.952860 5.734564 3.970728
4.033802 12.934490 2.808175
12.397401 0.529443 10.685386
12.558293 0.705022 10.712126
12.243196 0.435689 10.772022
12.703505 0.891636 10.727834
0.461885 9.630984 10.610063
0.640799 10.222374 10.260002
4.259836 1.611088 8.816423
4.467233 1.719561 8.799121
13.887439 6.857726 5.723408
13.183515 1.639314 6.017272
13.528980 2.123055 5.960332
13.420633 1.963872 5.991477
0.975778 7.457034 7.757482
0.692141 10.105637 7.492710
0.754917 10.777513 10.078754
0.609423 10.216943 10.076458
0.678291 10.365685 10.069079
0.676581 9.853346 7.478591
5.302287 0.714136 4.535118
5.303935 0.429539 4.441828
5.254534 0.427091 4.537951
4.688790 2.160987 8.718706
13.108240 1.624464 5.767624
12.966880 1.449567 5.772961
4.668448 2.347935 8.582132
8.349882 0.580173 5.601849
8.251321 0.584010 5.579228
8.288096 0.588519 5.526125
14.376448 5.103117 5.998495
14.383692 4.978535 6.081768
13.584988 2.272941 5.880067
0.560678 11.178350 8.514535
0.564679 11.354618 8.512877
11.318192 0.295789 7.542341
4.084388 11.796118 6.457276
4.112189 11.706984 6.428600
4.056475 13.124085 2.817920
4.079404 13.319755 2.835208
4.056099 13.529480 2.855282
10.499566 0.102091 4.884112
0.368806 9.909777 9.481667
9.386574 0.091403 4.922290
9.311954 0.111143 5.143643
9.289603 0.095297 4.900015
12.198302 8.445614 5.347245
12.300027 8.407687 5.384177
12.185915 8.309831 5.272418
11.620253 6.563806 4.256804
11.637508 6.472609 4.179742
11.536331 6.608274 4.234414
0.417576 10.066101 9.477138
9.773481 0.099888 4.723309
10.184188 0.107108 4.802624
10.289031 0.102377 4.832888
10.790186 6.531579 3.681622
10.778033 6.655047 3.796703
11.971294 6.042053 4.097406
11.888634 5.939737 4.003146
12.695641 2.546862 4.455500
0.848460 11.760529 7.841058
7.674372 6.849111 4.155135
5.821894 10.099125 6.931583
5.930338 10.097616 6.975627
10.579929 0.638065 10.059713
10.767404 6.378444 3.564963
7.739127 5.247495 12.899736
7.758122 5.057015 12.891557
12.727413 0.884262 10.620404
4.002305 12.964255 5.219566
3.966479 12.972802 5.326632
4.082093 12.758864 5.198782
14.581092 5.935065 9.739181
8.279970 12.639856 5.986522
13.530126 4.243651 5.037337
13.532183 4.376996 5.046584
13.492900 3.960843 5.006346
4.103214 12.743267 5.089353
0.846507 10.716929 11.118249
4.351876 5.973519 4.504992
4.487408 5.969428 4.476895
4.490211 5.785734 4.502940
3.947840 12.997164 7.324426
3.861935 12.861673 7.289037
3.920940 12.958038 7.557757
13.795120 2.448315 5.974621
13.933132 2.569254 6.162047
13.811296 2.420771 6.085398
13.859249 2.468634 6.067541
13.899655 2.607591 5.993270
8.570565 15.361152 3.900349
7.374470 0.523502 7.434919
7.442121 0.531660 7.263673
14.129453 6.753210 6.049227
14.121573 6.883246 6.057441
6.635605 11.991558 6.323691
14.497179 5.731790 6.103009
14.482082 6.055351 6.104407
14.420200 6.255306 6.088468
6.519910 2.261009 5.706008
6.519071 2.259037 5.681853
1.153983 7.907194 7.664218
0.475607 10.227079 9.470714
14.326358 4.955059 5.983885
14.354829 4.855570 6.061947
12.305290 6.686409 4.526782
12.202389 6.709279 4.492220
9.669054 0.088323 4.711293
3.824787 13.588403 4.508613
4.065251 13.107993 4.675914
5.152973 0.707839 4.770487
5.144029 0.492143 4.756884
5.111096 0.490682 4.888049
5.752910 10.118422 6.985399
5.576757 10.132897 6.947891
5.693564 10.133085 7.029441
3.964115 12.731280 2.697248
4.019226 12.926618 2.709439
4.062435 13.116152 2.717905
12.238850 0.544334 6.260361
12.269683 0.550101 6.335927
13.296334 6.755637 5.184102
13.286066 6.670270 5.117729
13.203433 6.706588 5.062994
4.016357 2.090574 7.807730
13.215505 6.802304 5.131245
4.069657 13.307817 2.731332
3.217310 0.883534 9.538183
3.210685 1.084271 9.799620
3.350102 1.024573 9.481932
4.060953 13.512341 2.749097
6.137847 3.824797 5.117803
15.359273 3.373045 6.507658
15.223015 3.408485 6.473247
11.742347 6.592410 4.331088
11.662327 6.623188 4.322078
11.647865 6.733654 4.377557
1.063125 5.270590 7.923465
0.590854 9.002140 7.591815
4.006826 13.725692 2.769459
12.629501 0.705479 10.505039
12.334336 0.467013 10.577306
12.772051 0.884480 10.524128
1.064328 5.162199 7.920618
7.926847 6.370558 3.217499
7.917872 6.202348 3.111041
7.797537 6.355239 3.233222
9.710309 8.046245 4.539938
9.594071 8.065192 4.518467
9.599441 8.231064 4.612462
6.614241 7.871431 4.735163
15.406641 4.349496 7.312167
15.543051 4.334827 7.338307
15.421137 4.247693 7.182567
7.558731 8.686905 5.211835
7.538013 8.574698 5.122225
0.522937 8.471647 10.511765
13.763209 7.509482 5.837039
13.659891 7.438914 5.675246
1.039014 5.725513 9.561088
0.767118 10.845307 10.775261
11.581200 0.601473 4.644949
11.715390 0.668914 4.715674
12.454377 0.622380 6.442390
6.529313 2.810001 5.561994
2.476291 11.804004 3.150037
2.398800 12.108791 3.138329
2.419952 12.093633 3.048628
14.140321 3.391212 5.877594
14.105137 3.247597 5.873684
10.511829 10.332784 7.074919
10.395315 10.335003 7.075686
13.676420 2.263833 6.046964
11.647378 6.825020 4.405729
11.749270 6.813270 4.418374
11.761529 6.708337 4.381440
9.927154 8.143301 4.659663
9.998579 8.085250 4.671795
9.924114 7.991351 4.591562
0.650199 9.709967 7.480984
6.674042 9.825120 6.742541
6.573707 9.857063 6.715262
6.547488 9.915950 6.868168
14.497249 5.893663 6.100265
6.562409 12.767362 5.469931
0.564485 10.388682 9.461298
1.680891 4.207892 8.937664
0.652577 10.535991 9.457446
0.726018 10.645191 9.470490
0.754033 10.696276 9.498444
14.520693 5.426645 6.203329
14.499431 5.270726 6.201794
14.273462 4.829515 5.962928
0.754453 10.762321 9.500624
14.337143 4.742514 6.051058
4.917641 0.227830 11.622624
5.561654 12.861558 5.739616
5.539265 13.045320 5.730811
5.666262 12.847427 5.699959
13.412317 3.036884 5.020890
12.520431 0.618463 6.510413
1.907727 8.497902 12.152795
11.560461 0.782173 4.558953
11.749322 0.832511 4.631071
5.093417 4.000300 11.304866
3.919628 13.919611 2.788184
14.124798 7.995372 7.367696
14.084313 8.080070 7.486202
14.146515 7.989393 7.506622
0.944856 7.619318 8.206651
8.669826 7.118883 4.332945
8.577109 7.132296 4.369922
8.629549 7.234252 4.308990
9.768986 0.265883 4.427072
11.870596 5.772238 3.922274
8.155025 8.156195 4.704902
8.162437 8.046371 4.625707
8.035233 8.171274 4.708516
1.965573 13.202712 5.158003
1.982422 13.207794 5.261145
1.997213 13.272729 5.206552
13.928026 5.738530 5.217332
13.962672 5.570189 5.226234
13.807361 5.615771 5.083210
9.709295 8.357013 4.724393
9.717890 8.210691 4.627438
9.598959 8.379534 4.715300
9.077010 0.540270 8.133271
14.313359 0.683995 8.357560
14.224823 0.655385 8.570226
14.173088 0.620493 8.397032
0.599133 8.678002 7.601811
4.079359 12.163537 5.139884
12.682050 3.344737 4.409185
12.714382 3.465533 4.463175
12.786246 3.410090 4.506200
14.313927 3.397920 6.220695
14.343648 3.402566 6.322762
14.296174 3.252465 6.311947
4.112307 12.346131 5.153075
6.074208 0.607852 3.757435
8.815688 0.178622 11.273221
6.128805 3.977859 5.035432
6.139602 0.252912 9.368389
13.458104 3.198730 5.022417
12.616200 2.554878 4.332404
12.641602 2.393152 4.452900
12.551581 2.414006 4.313425
9.050959 15.437460 4.410265
3.947851 12.724702 2.595489
8.674622 7.145155 4.352219
4.015208 12.919246 2.605857
4.051974 13.107330 2.615058
4.068365 13.298816 2.628572
4.064613 13.496570 2.645565
4.024632 13.711923 2.669501
12.639063 2.735292 4.315454
6.550023 8.430877 4.997550
9.971173 9.697819 5.974390
10.058899 9.707967 5.969045
9.966355 9.599445 5.859785
13.118409 2.370938 4.948805
13.102429 2.506072 4.947089
13.080828 2.615831 4.933149
1.036135 7.857449 8.093199
14.266999 4.180281 5.857630
14.240573 4.334652 5.846627
14.179320 4.607747 5.830142
14.206650 4.484609 5.839158
14.184837 3.530561 5.881964
14.229470 3.690567 5.883389
13.049080 1.482463 6.058515
12.530209 8.847408 5.846909
12.529193 8.738576 5.740638
12.415994 8.896910 5.797458
10.878692 8.351834 4.793970
10.770109 8.215106 4.732850
10.774252 8.374460 4.782592
8.841582 15.582773 4.608270
9.213931 0.115300 5.122002
8.713969 0.358986 5.442222
8.611076 0.353341 5.424641
4.508448 1.685866 8.873845
4.393111 3.025883 10.175356
4.294824 3.034406 10.144037
4.395997 2.974151 10.070956
14.187671 6.896215 6.166846
14.161636 7.058865 6.176860
14.388184 4.007607 6.084433
14.397145 4.178011 6.074837
14.445718 4.004686 6.201885
14.390037 4.336587 6.070781
14.457054 4.169896 6.191211
14.430487 4.873683 6.168285
14.369459 4.481578 6.060011
14.441044 4.476699 6.177302
14.351504 4.614801 6.051676
14.428940 4.612188 6.167672
14.457594 4.999705 6.181587
14.473905 5.134306 6.195157
14.534305 5.584123 6.208183
0.743391 10.852214 9.476618
14.249682 4.720207 5.944481
14.257794 4.616000 5.940366
0.706752 10.964656 9.439307
0.446677 9.489420 11.086057
0.426383 9.486448 10.954886
12.725173 2.711044 4.431748
6.117221 0.349371 11.557511
8.732816 0.629223 10.724787
8.668257 0.637490 10.891307
8.628589 0.624429 10.706041
6.208778 0.227022 11.370940
11.953190 7.684637 4.918074
12.054388 7.657595 4.936308
11.962916 7.583804 4.812584
12.647005 9.329219 6.655338
12.657532 9.248294 6.517413
1.276230 7.958399 7.295996
0.434615 9.580534 9.993446
0.413089 9.576350 9.904283
7.390138 8.908719 5.385266
7.386711 8.776359 5.288330
7.280635 8.910808 5.390105
4.142830 11.690025 6.453287
4.680183 1.943052 8.763846
4.124342 12.549954 5.175218
0.642457 11.110291 9.421343
3.112814 12.997469 1.105553
8.916015 0.182398 11.291472
6.117461 4.157712 4.972926
13.101217 3.387786 4.765084
12.361390 1.372109 4.896177
12.407115 1.375344 5.007756
12.369916 1.189965 5.024956
9.679111 9.301407 5.559920
9.773115 9.305432 5.566446
9.668502 9.207175 5.466050
11.869074 0.814908 4.729698
2.973947 3.123899 6.931536
3.147532 3.023934 6.907041
3.069544 3.048116 7.018711
3.988994 12.908245 2.502439
4.040780 13.100869 2.513976
8.712143 0.591273 5.573705
14.926451 4.767269 8.671803
14.919259 4.628231 8.834116
13.124263 2.730349 4.945154
13.338129 3.923100 4.898285
13.442937 4.217309 4.930384
13.398499 4.060267 4.919735
1.035464 7.849150 8.199869
14.264528 4.020674 5.862403
14.255448 3.851378 5.876028
14.318156 4.334005 5.958999
14.330023 4.016947 5.974521
13.342297 1.836213 6.039439
13.314266 1.811119 6.005259
13.397572 1.914138 6.040952
13.215583 1.680576 6.047470
7.720293 0.538424 6.575265
7.613596 0.533721 6.561665
7.692498 0.548899 6.379186
6.807154 0.101264 8.988053
14.475009 6.245760 6.224194
1.174816 7.705917 7.346604
1.129287 7.559382 7.343687
14.026639 7.397554 6.198154
14.155455 2.943493 6.214451
14.187294 2.962079 6.284984
14.111785 2.821159 6.259051
14.209547 3.093923 6.221850
14.240753 3.111377 6.300929
8.612943 0.727364 4.049447
8.556482 0.656866 4.049929
12.715896 2.147951 4.599025
12.454688 0.856352 6.120131
14.428696 3.849522 6.214867
12.330241 0.680547 6.161454
14.389723 3.690781 6.219593
14.353738 3.547035 6.221657
14.260844 3.242266 6.222573
13.297691 1.782936 6.046086
9.403384 7.166204 4.204495
9.523875 7.170937 4.193889
9.426840 7.089845 4.062149
0.549603 11.732034 8.677023
0.569297 11.596819 8.664536
0.587260 11.274738 9.419430
8.531503 0.587209 5.956337
3.637799 1.869185 7.955700
4.614034 1.796263 8.820722
4.663990 1.863410 8.779998
4.057235 13.293942 2.525193
4.066387 13.482719 2.544671
4.042744 13.690110 2.568791
12.358344 9.438657 6.522077
12.266546 9.470386 6.485791
12.255978 9.544554 6.604100
11.852686 0.669997 4.842279
11.975292 0.667983 4.991543
4.580288 1.808289 8.770727
8.574042 7.092462 4.325409
10.305703 8.192502 4.673594
10.316013 8.408309 4.716292
10.439310 8.408184 4.721125
13.768857 7.630034 5.940752
13.667288 7.573426 5.769155
10.701162 0.371761 6.108082
10.672554 0.338418 6.234289
10.578943 0.486218 6.165791
12.169674 0.978252 4.896390
12.245085 0.983684 5.027933
12.097371 0.815840 5.006611
12.310214 1.188243 4.895705
15.469459 3.159516 6.466339
15.344619 3.204701 6.420490
6.106876 4.318986 4.935176
13.329539 3.202728 4.905718
6.102508 4.450760 4.908384
6.415547 0.158712 10.988045
6.340890 0.169788 11.157516
4.130374 2.875926 6.522708
4.055721 2.930621 6.488656
8.716944 0.258835 12.087391
8.606537 0.233316 12.053063
3.972178 12.901729 2.404503
4.027424 13.092790 2.416546
4.054125 13.285693 2.427670
4.065898 13.471538 2.442477
13.478250 4.361671 4.948399
13.490048 4.497873 4.955019
13.504679 4.642698 4.941446
13.504585 4.794340 4.922204
0.559993 11.451912 9.444093
14.335640 4.181710 5.969935
1.104268 7.562773 7.449529
1.107999 7.411670 7.345904
4.050311 11.573403 6.252479
14.408760 6.401635 6.209498
6.367436 2.031659 4.866860
6.620156 2.094363 4.775022
6.355514 1.976821 4.685310
12.543323 1.009422 6.100105
12.729312 1.157359 6.096438
9.227053 8.834437 5.171612
9.120032 8.830810 5.171153
9.135300 8.964407 5.241850
0.503703 8.313068 8.521554
6.483179 2.253708 5.582623
6.253773 2.125818 5.516870
6.260731 2.149792 5.559024
3.055293 11.606957 3.135518
3.024431 11.584438 3.267966
8.414775 7.102236 4.337537
8.332136 7.106933 4.311042
8.357148 7.233748 4.340283
9.540673 7.090880 4.055819
9.561894 7.022270 3.925304
9.441738 7.014529 3.933184
0.601688 11.829961 9.487673
5.512488 13.381022 5.743508
5.503949 13.550725 5.763279
5.609886 13.550073 5.692858
14.289531 4.485862 5.949814
5.015495 10.971281 9.631427
4.996844 11.072584 9.622940
7.502602 0.516010 7.649465
13.159025 2.847740 4.920472
4.050384 13.674274 2.465378
3.997367 13.889327 2.485666
3.885001 14.083560 2.511448
12.000702 0.813537 4.869109
3.100662 14.819426 0.799755
3.044489 15.127106 0.881619
3.189795 15.112888 0.798234
4.679930 2.183546 8.614170
2.018429 13.972858 4.090927
2.080818 14.063250 4.063794
2.014840 14.033400 3.959228
14.389920 5.415235 5.897181
0.692164 8.125352 8.191022
0.725881 12.048949 9.513319
0.880595 12.221111 9.508262
12.026104 0.968075 4.740906
11.768948 0.886350 4.604490
10.393099 0.114939 4.863989
8.663153 0.593630 5.654201
8.563226 0.589307 5.638255
8.666319 0.530472 9.160944
8.564199 0.533965 9.136607
9.550542 0.588891 10.022121
13.744486 0.488890 8.827235
13.682150 0.441391 8.672663
13.514553 4.097235 5.019342
9.757754 0.519828 9.044533
9.728378 0.565927 9.077605
13.824686 3.233055 5.527031
9.344751 10.132615 6.674343
9.377984 10.075546 6.511422
9.247055 10.062653 6.534146
14.389717 3.551916 6.334113
14.463513 3.843790 6.329872
4.035297 12.007416 6.520325
3.998528 12.124398 6.519034
3.971302 12.184555 6.605941
12.221050 0.548129 6.172923
12.170848 0.360331 6.361275
8.045860 0.563372 6.061595
14.492058 4.000942 6.319795
4.060435 11.784851 6.304327
4.060278 11.810584 6.368456
6.098723 4.585738 4.853537
8.123945 0.577766 5.883160
10.595946 8.846036 5.001995
10.589926 8.710950 4.912809
10.469330 8.858899 4.992508
10.936379 0.146374 4.906044
14.154063 6.668252 6.050683
9.254627 9.103502 5.337346
9.243345 8.960059 5.247359
9.133725 9.104998 5.340381
3.460579 1.000799 9.385195
3.433611 1.140422 9.386642
13.242147 3.035789 4.896667
11.056406 0.150761 4.917595
3.977245 2.879751 6.577679
4.058772 2.832794 6.579883
3.928250 2.783541 6.805127
3.967176 12.896901 2.311751
4.021003 13.083767 2.322677
4.052644 13.278261 2.332073
3.522551 1.300870 9.400824
4.057403 13.462973 2.342559
13.238882 4.831033 4.685626
13.206086 4.761436 4.645528
14.333142 5.094806 5.900205
14.371206 5.258446 5.904546
14.072160 6.651914 5.930419
0.836024 5.963996 9.229687
13.357962 3.361264 4.898080
7.820996 0.534846 6.598348
4.062354 13.656036 2.360411
4.019751 13.870242 2.380256
12.338198 1.485773 4.852942
10.729225 6.868364 4.060738
4.556459 9.776206 6.127593
4.492930 9.674797 6.076519
4.501464 9.750779 6.087572
13.014305 1.966992 4.958943
13.096049 2.185588 4.952736
0.879825 7.961590 8.202150
13.346314 3.671148 4.883079
13.318609 3.794949 4.875118
14.511726 4.165797 6.309661
14.241180 6.663037 6.161914
3.723259 1.484379 9.412053
5.038168 13.235810 6.071129
4.885335 13.321908 6.231577
5.045764 13.407684 6.111518
3.914185 1.633485 9.425913
14.526914 5.142470 6.297090
14.512485 5.018413 6.287192
14.422293 3.692575 6.336125
4.669030 2.259252 8.784302
4.129664 1.758918 9.437755
4.310615 1.875796 9.460364
6.091179 4.722514 4.806519
5.532803 1.841864 5.627773
5.604896 1.913565 5.631007
5.464711 1.748892 5.657435
0.593627 8.443721 9.488620
0.498212 8.585614 9.519950
4.402576 1.943067 9.467283
4.425369 2.009999 9.499193
14.082520 2.793051 6.198338
14.008460 2.658439 6.170889
6.295792 4.177938 4.860315
13.971289 2.627957 6.101226
14.315644 6.409458 6.034139
14.181023 4.705262 5.844690
13.715242 2.755509 5.563379
13.769529 2.930513 5.546834
0.799766 10.854639 10.896344
13.395766 4.816994 4.805716
11.163817 0.173057 4.910042
3.115590 7.750589 11.067030
3.127137 7.803781 11.066746
3.259589 7.823167 11.099598
12.934184 1.306549 6.139872
12.878629 1.287217 6.131362
1.749886 7.676990 10.249206
8.432061 0.533434 9.476295
10.525587 0.532903 5.923081
10.546372 0.465375 5.888464
4.458427 2.120242 9.520610
13.299591 4.896159 4.733875
14.276360 4.937566 5.890545
8.311067 0.559820 6.490526
8.207507 0.555292 6.474588
8.280800 0.561952 6.299865
2.069241 4.693348 10.518346
4.472204 2.220493 9.540312
5.672600 0.246473 3.990032
5.939464 0.545101 3.798890
5.863333 0.244575 3.825604
12.766264 7.273492 4.986282
12.766566 7.147059 4.933962
12.677796 7.194267 4.895615
0.806138 6.598294 9.203914
0.831621 6.726302 9.207039
11.630718 0.172938 9.544996
11.565719 0.180722 9.703441
11.522041 0.168059 9.525672
6.565559 0.086607 8.783069
6.370406 0.175294 8.880088
3.954001 12.890849 2.220703
13.340771 3.523784 4.875241
13.494660 3.363373 5.029005
4.481772 2.340481 9.556927
0.564375 11.956212 8.690218
4.488386 2.449147 9.560105
4.015255 13.077723 2.228460
4.050102 13.272446 2.236266
4.063735 13.456430 2.245654
5.872082 2.718110 5.533442
13.309284 1.980747 5.639214
13.375891 2.137773 5.620081
14.490423 4.884162 6.274764
13.427407 2.278801 5.603186
14.573568 5.590128 6.307521
0.785645 10.640112 9.840348
0.652110 10.220641 10.349328
14.761717 4.179946 7.036977
2.278699 12.182699 3.864178
2.283095 11.887224 3.838157
13.618431 6.515559 5.319357
13.615274 6.401303 5.214885
13.525809 6.443386 5.165153
13.802770 3.086824 5.533353
13.201497 1.795005 5.654268
13.340970 4.958448 4.775919
0.736621 11.221301 10.084358
0.779048 10.989716 10.673779
0.722302 10.532095 10.405244
0.724568 10.659066 10.298978
4.062842 13.639751 2.260159
4.036237 13.854113 2.281198
4.372487 1.605740 8.876502
14.225208 4.817776 5.874301
0.423067 10.033337 8.392663
4.562828 2.358865 10.150866
4.549996 2.468058 10.039553
0.806727 10.740577 9.808359
3.395644 1.497723 9.894259
14.202794 7.216067 9.841889
9.114866 14.983795 3.788759
3.240595 1.236765 10.155853
3.235661 1.291938 10.219579
3.266337 1.295705 10.130491
0.451664 9.122956 10.017437
0.439772 9.281959 10.040907
0.853782 6.733266 9.326572
0.840785 6.869743 9.212666
11.005980 0.488816 4.453079
10.892918 0.517288 4.420380
1.958016 12.885555 5.551096
4.508789 1.703060 8.849886
7.553768 8.027731 4.644249
14.128164 0.607575 7.590775
5.659087 0.158967 10.640234
5.628882 0.161168 10.457479
7.642589 8.495135 5.007157
7.528774 8.472896 5.034546
6.217586 0.657050 3.713689
13.380472 8.797083 6.804383
13.394969 8.706927 6.683028
13.292355 8.849815 6.748005
7.671297 8.040140 4.626093
7.554721 8.172348 4.739490
4.583525 2.471827 10.155938
0.581548 8.459245 10.173019
12.921024 1.439294 5.669160
14.560515 6.059229 9.739570
3.958173 13.308227 0.852623
16.210512 3.211912 9.224899
15.707806 3.189587 6.698815
14.401754 6.659178 9.847334
14.822514 5.078066 9.302603
3.219435 1.228152 9.920432
3.262344 1.322787 9.925343
3.235081 1.171810 9.781491
4.435371 4.380292 4.888228
13.078111 1.618455 5.664448
11.647018 6.234620 3.963782
11.634395 6.087836 3.867013
11.533711 6.134010 3.818140
12.719974 8.280076 5.582098
12.686494 8.173978 5.490570
12.610006 8.181944 5.465304
3.342212 11.641404 3.378428
4.005676 13.071161 2.130076
5.821199 0.304159 11.454594
5.698855 0.263961 11.429641
5.715928 0.194260 11.243338
12.574457 1.689268 4.764882
12.690654 1.686428 4.863487
4.870701 11.504968 9.816071
4.839398 11.675002 9.816588
8.819722 15.068171 3.747984
13.079388 9.058854 6.803878
13.092175 8.984631 6.647958
13.006099 9.037455 6.614151
4.049331 13.265411 2.140505
4.063587 13.450614 2.149197
3.593974 1.810991 10.597010
3.427439 1.649577 10.608408
0.699358 10.180090 11.096522
0.719567 10.305176 11.059628
6.217612 0.360132 3.678454
6.083243 0.111242 3.906674
0.446529 8.647274 10.846128
4.064499 13.630492 2.161580
4.055135 13.832522 2.181745
3.976048 12.020488 4.116532
8.192565 0.583744 5.713339
5.151893 11.622910 8.538425
6.091930 4.856324 4.735684
5.645100 13.031179 5.666999
14.546457 6.195073 9.739723
14.455450 6.664436 9.741904
14.400762 6.816517 9.738843
14.347153 6.961472 9.730208
14.292432 7.094150 9.729780
14.252077 7.218758 9.728964
16.081719 2.430879 9.225558
0.748809 10.565079 10.101779
4.944362 11.213692 9.741037
12.466246 0.156804 7.691747
12.453805 0.160158 7.488397
7.985744 0.533802 7.011668
3.995534 14.037576 2.202317
3.746089 14.483761 2.232286
1.073867 12.437535 8.179002
6.060482 4.982620 4.699412
14.902087 5.089625 8.733838
14.894488 5.091548 8.837698
4.908171 11.366090 9.722449
4.886106 11.521065 9.708471
4.859047 11.658682 9.711469
6.031414 5.166361 4.602155
14.093739 7.668389 9.729782
6.858680 4.742661 3.320386
6.931288 4.792838 3.253893
6.937109 4.642794 3.265173
14.856681 5.084716 9.181697
1.777821 9.192626 6.229756
6.883553 1.317846 3.741601
6.741837 1.319806 3.750195
6.753556 1.504707 3.844109
13.605761 2.577469 5.569415
2.194373 8.710817 6.076890
10.707669 0.513300 4.383585
5.269576 3.840277 11.328871
5.167857 3.864121 11.288509
9.892690 0.206760 8.302998
10.020156 0.162167 8.351640
9.808833 0.260343 8.465692
10.670223 0.283850 5.795177
12.325790 0.141392 7.938835
12.184978 0.170565 7.935894
12.321666 0.136600 7.698014
1.583717 4.587819 9.518006
15.667062 1.569041 8.538430
1.387543 11.468109 7.176503
14.685484 5.639085 9.619618
14.633102 5.938825 9.629031
14.610027 6.063728 9.630644
14.597357 6.193024 9.630949
14.582746 6.344244 9.632370
14.553712 6.511701 9.632407
14.508478 6.670801 9.631154
14.453769 6.824188 9.627323
14.390645 6.970117 9.623661
14.335151 7.102221 9.620258
14.293249 7.224873 9.617086
14.255747 7.364016 9.615433
14.202610 7.520844 9.612859
14.142060 7.670039 9.607536
14.066249 7.829175 9.607200
13.981577 7.973642 9.610277
4.003681 13.065380 2.033697
4.049187 13.257924 2.042151
4.065282 13.444805 2.052103
16.074325 2.103610 8.536296
6.973548 12.636985 5.550353
4.982789 11.213346 9.621004
4.947113 11.373797 9.615386
4.900781 11.523077 9.615906
4.880166 11.647981 9.619155
4.870897 11.765119 9.636166
4.896020 11.920997 9.640377
14.074386 8.143481 8.224596
4.077322 13.624076 2.062222
3.935118 12.877553 1.934753
9.945631 6.536610 3.407517
9.830402 6.553460 3.399339
9.829393 6.707400 3.512277
13.515408 2.423556 5.588702
1.435620 7.808265 9.796715
1.380549 7.709492 9.780028
1.431483 7.692586 9.870465
14.334696 3.281340 6.385963
14.268385 3.160911 6.393285
14.269786 3.146552 6.360105
0.737176 6.325994 8.651257
4.072227 13.815461 2.077942
4.026833 14.022008 2.103215
4.468706 1.918989 8.537063
0.759917 6.463749 8.653208
0.382989 9.177667 10.716381
0.375904 9.007904 10.719049
0.808942 10.719983 11.009887
14.739430 5.201466 9.514891
14.744446 5.339717 9.508593
14.740966 5.489533 9.507240
14.726567 5.640901 9.510186
14.708546 5.795756 9.513723
14.674009 5.940891 9.518021
14.651677 6.067548 9.519841
14.639450 6.197345 9.518502
14.626039 6.348459 9.516725
14.598695 6.514030 9.515664
14.554101 6.676315 9.513759
14.497402 6.832235 9.511380
14.432637 6.977043 9.509834
14.374814 7.108913 9.506839
14.331899 7.233069 9.502958
14.293484 7.368524 9.496242
14.240421 7.523629 9.493026
14.172124 7.677679 9.490931
14.096878 7.833142 9.489115
15.680108 1.572442 8.431328
15.831340 1.745927 8.536128
14.515412 7.266706 8.447987
6.035047 5.375497 4.520548
3.938617 14.218258 2.123627
3.889395 14.383438 2.044218
6.043293 0.113966 3.948462
6.146309 0.089927 4.002492
15.961019 1.920143 8.537595
5.051111 10.964107 9.522251
2.993836 15.429361 1.295036
2.887675 15.278386 1.076040
5.021117 11.078259 9.509251
5.004379 11.214727 9.501906
4.977458 11.375889 9.501679
4.922611 11.524063 9.512215
4.897980 11.636903 9.525290
4.913110 11.755814 9.531138
4.933376 11.933005 9.524839
8.905447 0.535421 8.288188
8.834585 0.535119 8.456832
8.799182 0.530770 8.270234
14.202726 3.004332 6.321695
14.199823 3.020526 6.328493
0.935169 8.662733 11.829110
1.072979 8.496208 11.864824
1.027537 8.665058 11.909765
8.960649 14.683367 3.756642
8.966428 5.907000 2.985949
8.954322 5.770413 2.893433
3.900149 1.320614 8.924523
3.938340 1.444719 8.817559
1.926258 10.833945 6.281314
1.797062 10.841295 6.390509
1.779550 10.921440 6.409144
7.610135 0.178881 11.561372
7.516883 0.183006 11.541438
7.590896 0.197036 11.372252
2.043643 11.820169 11.415861
12.251878 1.535551 4.715045
12.202944 1.611886 4.658627
7.890900 0.331345 5.302289
7.788816 0.325041 5.284465
10.509853 0.641477 9.949517
4.463054 2.731846 9.660380
4.477290 2.674408 9.697368
14.378617 3.409559 6.410982
14.374133 3.336457 6.440519
14.774802 5.345211 9.399431
14.772603 5.491158 9.396701
14.759878 5.642685 9.397709
14.742489 5.795576 9.400290
14.715221 5.942390 9.401908
14.693014 6.071072 9.403926
14.680631 6.202053 9.401330
14.666725 6.353673 9.397396
14.638432 6.516693 9.394279
14.587978 6.679063 9.394353
14.536137 6.834990 9.392403
14.470749 6.981765 9.392901
14.411286 7.114083 9.391313
14.360195 7.241155 9.388665
14.320009 7.372883 9.381523
14.266436 7.525108 9.377971
14.198001 7.678675 9.376877
14.126605 7.832021 9.375805
5.129020 11.618062 8.624758
5.105407 11.607459 8.716944
14.453899 7.405814 8.447399
14.388937 7.547456 8.443256
15.161654 1.279987 9.177660
8.180305 0.565573 6.276596
8.077139 0.561100 6.260819
3.997417 13.062051 1.937679
4.045859 13.253312 1.944955
12.342959 9.582535 6.771168
12.348177 9.510141 6.644281
12.245584 9.619064 6.722980
5.078260 10.981531 9.428530
5.030311 11.099970 9.417540
5.017328 11.221129 9.397956
5.000996 11.375342 9.394005
4.959792 11.520459 9.403248
4.943989 11.628549 9.422118
4.957731 11.754150 9.423219
4.968525 11.946933 9.416985
4.940483 12.178222 9.392163
14.408534 3.560649 6.424481
4.136887 1.585805 8.758519
4.076633 13.439795 1.952560
4.079450 13.616596 1.961645
0.596854 10.521305 8.929294
13.911566 1.154583 10.124430
6.372092 0.478940 3.602044
6.538502 0.500405 3.584150
6.424502 0.165070 3.759238
0.625495 10.591368 8.940072
4.076448 13.801660 1.977170
4.049740 14.002621 2.003722
1.474522 4.740085 9.592880
1.363599 4.913022 9.586116
14.066402 8.146916 8.328466
14.017063 8.223059 8.224578
6.037850 5.513285 4.532352
14.810010 5.220688 9.294627
14.806307 5.351642 9.284610
14.801199 5.494851 9.281019
14.790147 5.643319 9.278604
14.772491 5.795390 9.281939
14.748149 5.941594 9.285899
14.722809 6.073877 9.289001
14.709601 6.208148 9.285459
14.694219 6.358552 9.279135
14.660455 6.519915 9.277662
14.621068 6.678046 9.275112
14.558443 6.837795 9.279116
14.492506 6.985497 9.280736
14.438134 7.119158 9.278944
14.381671 7.247053 9.274909
14.338049 7.379570 9.270444
14.283561 7.527573 9.267914
14.222165 7.679193 9.267751
5.122957 11.776561 8.708794
6.024532 5.608668 4.510542
14.435210 3.511579 6.495569
3.221335 1.228976 10.059564
3.983691 14.200099 2.021574
3.868973 14.475723 1.977083
3.935925 14.374482 1.944020
2.822253 11.549944 3.482294
2.831109 11.589486 3.243770
5.121059 10.987294 9.332585
5.146401 10.868753 9.433027
5.048025 11.113614 9.328945
5.020838 11.236821 9.305597
5.006202 11.375620 9.291869
4.985908 11.512503 9.296768
4.967281 11.620433 9.311984
4.985628 11.754839 9.313972
4.992310 11.958412 9.298864
6.755323 13.977347 5.074006
6.654676 13.986956 5.117719
1.291961 5.094612 9.586936
1.256199 5.250627 9.589640
5.234951 10.759741 9.430040
14.184721 7.520573 6.716669
0.826298 12.010965 9.753384
0.875866 12.012872 9.848055
0.922036 12.179836 9.667571
3.259019 11.557515 3.592710
14.932524 4.685737 8.516962
4.876877 0.548527 5.444430
11.706710 0.751088 11.653784
6.291379 0.126815 9.932779
7.877301 0.521679 7.544180
7.842371 0.525356 7.354245
1.239485 5.365948 9.620683
13.023709 9.003146 6.578030
14.838702 5.228668 9.178550
14.827075 5.360096 9.171514
14.822862 5.498284 9.164402
14.813823 5.644989 9.161345
14.796593 5.792835 9.163709
14.773623 5.938458 9.168467
14.749339 6.076163 9.171631
14.735203 6.212971 9.168298
14.712956 6.363240 9.164150
14.681334 6.520269 9.161892
14.638768 6.679376 9.162983
14.584462 6.836787 9.166818
14.518899 6.985437 9.169132
14.456320 7.124725 9.170288
14.403999 7.251743 9.166690
14.352883 7.384206 9.165416
14.305002 7.527059 9.162079
14.239968 7.681124 9.162524
14.167150 7.832738 9.164537
5.108837 11.996959 8.704667
6.026529 5.768537 4.416803
15.283518 1.227553 8.325199
3.225204 11.352191 4.405200
9.424959 0.604249 10.341323
9.365603 0.620384 10.499044
9.318614 0.599574 10.324671
3.998437 13.059322 1.839421
4.046188 13.247933 1.844963
2.198813 12.703665 6.943882
2.127131 12.627331 6.903767
2.134855 12.632884 6.995626
1.514934 7.787918 9.890026
16.206731 3.885910 9.013660
16.317809 3.703202 7.949355
5.090769 11.121041 9.237618
5.167451 10.979074 9.237930
5.034316 11.254286 9.218491
5.017368 11.382203 9.195736
5.002702 11.502044 9.187298
4.990059 11.612674 9.198259
5.007372 11.758499 9.204185
4.075912 13.433628 1.851990
4.090500 13.609614 1.860878
6.756156 12.935740 5.353976
15.525247 1.561041 9.110734
15.698435 1.733575 9.118169
15.855440 1.913289 9.118634
16.124206 2.433967 9.093651
14.858635 5.235280 9.058956
16.171810 2.588267 9.100934
16.122108 2.588530 9.234467
16.202677 2.738536 9.105493
16.241891 2.915230 9.098647
16.246122 3.068252 9.104718
16.253672 3.211743 9.108634
6.993524 0.083352 3.953742
6.888456 0.074637 3.955242
6.985376 0.390242 3.683488
4.087411 13.789860 1.874708
4.068792 13.983828 1.900226
14.850243 5.365398 9.055992
14.832101 5.500865 9.051849
14.825924 5.645393 9.048917
14.804949 5.791006 9.052183
14.790093 5.936672 9.056553
14.772414 6.077599 9.058780
14.749604 6.216780 9.057761
14.725455 6.366631 9.055840
14.695681 6.520138 9.054146
14.654132 6.678384 9.056727
14.599771 6.835990 9.061027
14.541264 6.983349 9.063651
14.477451 7.124822 9.065161
14.418761 7.256714 9.063432
14.366344 7.388217 9.063011
14.318608 7.527551 9.058983
14.255112 7.682647 9.059492
7.379764 9.591664 6.464832
7.402240 9.525965 6.306825
1.893080 7.523205 10.468299
1.904751 7.677077 10.455493
9.153628 10.205363 7.033356
9.271270 10.218767 7.018277
9.185782 10.162315 6.865243
8.923195 14.792598 3.728075
4.028748 14.184452 1.918499
7.420066 8.162214 4.765107
7.435243 8.026212 4.659517
7.310790 8.150450 4.776773
5.238054 10.854535 9.224701
5.207198 10.980256 9.134480
5.278127 10.850122 9.120029
5.141646 11.125339 9.140721
5.062096 11.267804 9.130818
5.019561 11.395193 9.111466
5.012748 11.498986 9.096778
5.014591 11.604636 9.100014
5.034653 11.767524 9.102737
5.033279 12.056818 8.982000
6.044926 5.965931 4.360864
4.219938 12.507193 6.626030
4.207077 12.605453 6.659034
15.576332 1.558752 8.987121
15.754119 1.731236 8.982667
15.895664 1.914088 8.990078
16.016739 2.097426 8.982941
16.092348 2.268554 8.978459
16.148330 2.429869 8.976573
16.190008 2.580900 8.980192
16.240848 2.741602 8.985423
16.263172 2.909887 8.991434
16.273999 3.067495 8.994743
16.286018 3.208910 8.999684
16.294226 3.357636 9.002667
16.292776 3.525374 9.006245
16.262231 3.708792 9.012303
7.100138 0.050601 4.268903
6.998881 0.052839 4.261455
3.095117 1.721445 7.468040
3.108739 1.724623 7.586548
13.932782 7.968656 9.738255
8.393616 0.591654 5.540586
14.856528 5.369886 8.945495
14.876868 5.234195 8.945013
14.843745 5.503074 8.942744
14.831600 5.645695 8.941322
14.816001 5.790163 8.942557
14.803012 5.933005 8.946055
14.781612 6.077818 8.949337
14.762450 6.219720 8.950021
14.737137 6.367314 8.949925
14.708740 6.521049 8.950490
14.667432 6.677476 8.951996
14.614189 6.831815 8.956324
14.556819 6.982927 8.960506
14.492265 7.127840 8.962577
14.432969 7.261387 8.961353
14.385733 7.389515 8.958682
14.333189 7.528655 8.956810
14.269675 7.683690 8.956070
8.090244 0.538415 7.027411
7.031901 2.002645 4.298497
6.924432 2.003318 4.334419
8.457226 0.584686 5.619976
7.810774 0.521524 7.710902
7.200865 0.047486 4.286551
5.362387 10.716715 9.110161
5.393691 10.644813 9.181617
5.250950 10.974903 9.023934
5.311367 10.848780 9.013385
5.188373 11.124220 9.035075
5.103489 11.276607 9.036693
5.034019 11.409649 9.025486
5.020007 11.501942 9.012592
5.031271 11.598504 9.007305
1.837285 7.654183 10.339904
15.409681 1.388249 8.865386
15.616910 1.561005 8.863223
15.791767 1.738165 8.859726
15.924868 1.914587 8.857688
16.036973 2.093859 8.861042
16.112184 2.271410 8.860010
16.164692 2.428784 8.860292
16.212653 2.579209 8.864527
16.258103 2.737713 8.872455
16.292575 2.910932 8.879700
16.300277 3.066077 8.886225
16.310834 3.207795 8.890326
16.323661 3.359654 8.892524
16.323477 3.529222 8.895031
16.300143 3.707792 8.894864
16.239657 3.891052 8.897250
6.342890 1.167470 3.790736
3.827330 13.728687 4.065456
14.879087 5.235669 8.837949
14.863911 5.372696 8.838925
14.852715 5.505818 8.838162
14.841118 5.646543 8.838862
14.827365 5.788516 8.839143
14.814472 5.928892 8.841731
14.792674 6.076356 8.844707
14.773583 6.221694 8.846433
