3.885688 15.936675 -0.398095 3.935860 16.028050 -0.383691 1071
4.223340 15.960110 -0.310767 4.314185 16.077999 -0.278802 2294
3.625733 16.079638 -0.000000 4.002926 16.199864 -0.000000 2369
3.986983 16.092491 -0.395183 4.137212 16.204233 -0.342217 1041
4.149852 15.942449 -0.323000 4.206021 16.085337 -0.297290 721
3.953330 15.947261 -0.392305 4.040900 16.092164 -0.343850 1727
3.820801 16.140848 -0.464919 3.976873 16.202741 -0.401545 1594
3.735639 16.097497 -0.506747 3.808634 16.205169 -0.461610 1595
4.218336 16.096913 -0.322886 4.321689 16.205626 -0.295668 1394
4.159096 16.096165 -0.350099 4.240317 16.200455 -0.324392 1222
3.628367 16.087754 -0.559906 3.719859 16.203456 -0.506829 1320
3.807316 15.942526 -0.455014 3.955977 16.105756 -0.399619 1255
3.625205 15.939759 -0.541593 3.702059 16.083385 -0.486169 982
3.713284 15.944970 -0.490243 3.798231 16.076334 -0.441076 1491
4.047820 15.936212 -0.353506 4.147472 16.081700 -0.317461 913
2.997484 15.815245 0.000000 3.156246 16.017322 0.000000 2656
2.807745 15.797842 -0.000000 2.977777 15.987497 -0.000000 864
3.131481 15.980700 -0.807706 3.217110 16.084253 -0.789453 251
3.048033 16.113402 -0.784680 3.265999 16.202477 -0.768609 338
3.098775 15.798412 -0.861428 3.162612 15.856330 -0.823378 393
3.095747 15.867275 -0.838142 3.162170 15.923457 -0.821184 1024
3.095241 15.923701 -0.820067 3.144192 15.980700 -0.807706 995
3.017724 16.045361 -0.000000 3.195060 16.198445 -0.000000 2508
3.009793 15.968043 -0.810473 3.092281 16.092783 -0.787949 1736
2.996953 15.864372 -0.839503 3.091951 15.959118 -0.812425 1020
2.948730 15.791575 -0.869049 3.091756 15.863112 -0.839939 1021
2.815833 16.056650 -0.794319 3.009425 16.202340 -0.768631 1935
2.827328 16.020036 0.000000 2.986187 16.185675 0.000000 2402
2.816442 15.961633 -0.812311 2.987057 16.032134 -0.798639 809
2.813474 15.879101 -0.833417 2.978524 15.954571 -0.814109 544
2.806370 15.792675 -0.867200 2.934246 15.872279 -0.836005 398
3.220702 16.070033 -0.656158 3.474709 16.200773 -0.000000 2562
3.195533 15.941995 -0.000000 3.465251 16.049211 -0.000000 2441
3.500104 15.987495 -0.617312 3.606497 16.086021 -0.541942 1280
3.482864 15.808545 -0.000000 3.614747 16.199888 -0.000000 2440
3.472111 16.102013 -0.650705 3.601877 16.195900 -0.564598 2132
3.446264 15.792238 -0.611970 3.608064 15.919798 -0.508780 1379
3.362902 15.925910 -0.684052 3.603318 15.983303 -0.534730 1138
3.400145 15.986863 -0.682379 3.487228 16.093430 -0.612940 1265
3.363595 16.109870 -0.726907 3.452282 16.202600 -0.661775 737
3.344770 15.792253 -0.689462 3.416845 15.915541 -0.624654 977
3.317010 15.986373 -0.732567 3.391491 16.092951 -0.672719 949
3.176956 15.790508 -0.000000 3.467308 15.923299 -0.000000 2387
3.278140 16.103092 -0.778837 3.352142 16.200596 -0.719863 598
3.232750 15.795995 -0.775532 3.332813 15.908923 -0.679586 745
3.225199 15.985359 -0.801613 3.307780 16.102365 -0.737648 599
3.162918 15.911998 -0.824215 3.336499 15.979852 -0.703721 469
3.163342 15.790920 -0.827587 3.225500 15.896600 -0.767253 174
4.528004 15.755349 -0.000000 4.654176 15.926666 -0.000000 2672
4.330526 15.723580 -0.000000 4.492131 15.953037 -0.000000 2291
4.745833 16.068760 -0.083470 4.827921 16.207805 0.000000 2575
4.626401 16.074226 -0.000000 4.703999 16.188791 -0.000000 2113
4.475887 15.980822 0.000000 4.617206 16.185867 0.000000 2515
4.332370 15.968763 -0.000000 4.452474 16.191190 -0.000000 2371
4.330169 15.750043 -0.256779 4.378295 15.927465 -0.228256 906
4.495352 15.869150 -0.075004 4.827901 15.967211 0.000002 2289
4.684630 15.780016 -0.083631 4.827900 15.854963 -0.000000 614
4.645361 15.971634 -0.084195 4.827900 16.068299 0.000112 2268
4.805654 16.030873 -0.244349 4.827912 16.199816 -0.093192 2173
4.785126 15.926510 -0.228996 4.827900 16.020018 -0.108621 2155
4.690146 16.121057 -0.263957 4.827877 16.206288 -0.246550 2170
4.585537 16.123743 -0.270746 4.646756 16.211151 -0.254854 316
4.785236 15.778994 -0.209787 4.827900 15.914035 -0.107820 1613
4.429761 16.071147 -0.291921 4.557128 16.211765 -0.261469 1920
4.324415 16.061429 -0.301950 4.418033 16.201969 -0.271573 1194
4.334740 15.952875 -0.278051 4.465695 16.056280 -0.247189 1195
4.500794 15.868341 -0.260650 4.578001 16.127134 -0.218237 1591
4.603301 15.903111 -0.252227 4.720186 16.118017 -0.215260 1612
4.720958 15.770157 -0.245057 4.782521 16.104176 -0.186380 203
4.386707 15.723226 -0.246915 4.498200 15.938663 -0.204561 1711
4.600837 15.733833 -0.216004 4.710371 15.889861 -0.185621 1263
4.509684 15.724037 -0.217279 4.595375 15.851788 -0.192739 911
2.524144 15.631063 -0.000000 2.709387 15.732238 -0.000000 2686
2.539092 15.479433 0.000000 2.794655 15.602635 0.000000 2491
2.540788 16.099679 0.000000 2.802648 16.200001 0.000000 2658
2.550671 15.931277 -0.000000 2.804723 16.076791 -0.000000 2394
2.464983 15.732729 -0.000000 2.586309 15.951821 -0.000000 2589
2.336121 15.737867 -0.000000 2.448504 15.982010 -0.000000 2384
2.347212 15.499635 -0.000000 2.506113 15.716765 -0.000000 2382
2.340745 15.998522 -0.000000 2.528632 16.198946 -0.000000 2393
2.614671 15.646615 0.000000 2.790862 15.907092 0.000000 2385
2.549700 15.864009 -0.839112 2.682532 15.917020 -0.823439 742
2.447587 15.846579 -0.846151 2.542191 15.990574 -0.805913 1941
2.345259 15.841004 -0.848278 2.434884 15.987019 -0.806529 1155
2.528981 16.051251 -0.795262 2.796934 16.192919 -0.770292 1581
2.606320 15.940333 -0.817553 2.801152 16.030388 -0.798952 1157
2.695235 15.864039 -0.839087 2.802064 15.907008 -0.825800 1529
2.348537 15.998244 -0.804612 2.511004 16.201926 -0.768699 1488
2.643780 15.772379 -0.878367 2.747253 15.840529 -0.848181 1281
2.548659 15.775931 -0.875916 2.633753 15.845128 -0.846450 450
2.739117 15.673939 -0.938072 2.795848 15.727630 -0.901798 1185
2.650386 15.673730 -0.937104 2.730158 15.724231 -0.903736 790
2.526716 15.922287 -0.822133 2.600987 16.047272 -0.795971 501
2.338377 15.761637 -0.883968 2.536813 15.822702 -0.855564 361
2.346220 15.697155 -0.921581 2.443006 15.757895 -0.886165 1128
2.342919 15.612871 -0.987771 2.464915 15.677207 -0.935647 541
2.596451 15.729715 -0.900477 2.803768 15.814572 -0.858290 451
2.595646 15.623262 -0.978732 2.641793 15.712462 -0.910999 817
2.464408 15.624569 -0.976996 2.576573 15.748263 -0.891277 387
2.654270 15.622355 -0.978752 2.703208 15.669237 -0.940383 666
2.715730 15.616244 -0.983902 2.791242 15.670842 -0.939884 841
3.166796 15.518765 -0.875253 3.253668 15.534630 -0.785401 2087
3.064639 15.516892 -0.885727 3.156080 15.630950 -0.790187 1707
3.197738 15.648462 -0.768433 3.270146 15.721577 -0.710157 1718
3.092327 15.645812 -0.864221 3.182978 15.727492 -0.779871 29
3.078684 15.495723 -1.006105 3.244140 15.512655 -0.909892 515
3.154217 15.535566 -0.780528 3.257050 15.590311 -0.697085 1208
3.173969 15.600626 -0.774543 3.254840 15.642278 -0.705551 1240
3.095586 15.729080 -0.870278 3.292001 15.790604 -0.705303 154
2.867881 15.749626 -0.890815 3.090445 15.785082 -0.871333 397
3.011841 15.512432 -0.911335 3.057355 15.581787 -0.864579 591
2.993000 15.678736 -0.933623 3.089222 15.749488 -0.867917 587
3.001497 15.598332 -0.945075 3.083349 15.671475 -0.865237 372
2.797984 15.673575 -0.937206 2.856052 15.778721 -0.874559 373
2.924474 15.675680 -0.937716 2.981310 15.749039 -0.890595 1081
2.856411 15.673355 -0.938055 2.916433 15.746645 -0.892396 842
2.911363 15.625363 -0.975397 2.992573 15.665662 -0.944242 1350
2.928914 15.497076 -1.001251 3.052340 15.577525 -0.921814 514
2.792187 15.584140 -1.014402 2.845318 15.669825 -0.940755 326
2.852896 15.582062 -1.016836 2.899854 15.667324 -0.942440 933
2.907429 15.579868 -1.018830 2.983206 15.618758 -0.955539 374
2.945238 15.627435 -0.000000 3.142803 15.782531 -0.000000 2657
2.806041 15.623020 -0.000000 2.922828 15.781516 -0.000000 2655
2.824779 15.431436 -0.000000 3.041511 15.599405 -0.000000 2377
3.292272 15.427916 -0.000000 3.469221 15.577293 -0.000000 2534
3.052411 15.431700 0.000000 3.253062 15.582226 0.000000 2373
3.380155 15.600513 0.000000 3.477645 15.775396 0.000000 2395
3.209496 15.590124 -0.000000 3.354464 15.770646 -0.000000 2381
3.067094 15.542702 0.000000 3.208366 15.688509 0.000000 2392
3.498608 15.447888 -0.000000 3.614107 15.741554 -0.000000 2376
3.561669 15.703288 0.000000 3.610974 15.782462 0.000000 2375
3.529693 15.556864 -0.659024 3.610451 15.604191 -0.474070 1649
3.385772 15.434495 -1.133913 3.481957 15.485500 -1.054302 1955
3.280354 15.440132 -1.152152 3.376475 15.488335 -1.047931 35
3.456276 15.707547 -0.588586 3.617699 15.788131 -0.484279 1892
3.472934 15.619254 -0.565070 3.610677 15.694823 -0.478535 1151
3.281501 15.492321 -1.025353 3.461941 15.510056 -0.924672 1753
3.546531 15.433568 -1.004739 3.611518 15.503987 -0.958813 1712
3.492032 15.441870 -1.045688 3.534657 15.505333 -0.951496 1515
3.427417 15.557317 -0.656654 3.520023 15.615089 -0.522831 1426
3.379734 15.560617 -0.638116 3.425788 15.685628 -0.581980 1497
3.268181 15.560553 -0.705904 3.376773 15.680661 -0.615427 1017
3.430092 15.528770 -0.818687 3.597486 15.554664 -0.671591 1152
3.291506 15.698876 -0.696741 3.431415 15.788698 -0.595037 1193
3.278359 15.511438 -0.916678 3.609407 15.526447 -0.831807 681
3.268182 15.524336 -0.843984 3.416259 15.560370 -0.645157 468
2.507393 15.437545 -1.216930 2.589319 15.461782 -1.173154 1050
2.508059 15.415807 -1.268838 2.587173 15.435070 -1.221951 543
2.514974 15.466560 -1.164844 2.591261 15.487900 -1.128790 1029
2.671158 15.413074 -1.272763 2.709804 15.451038 -1.191570 948
2.596013 15.415436 -1.271753 2.659877 15.449181 -1.198057 315
2.696870 15.485675 -1.134146 2.750437 15.534931 -1.067676 904
2.712091 15.425428 -1.244369 2.753102 15.479849 -1.144028 378
2.756130 15.533051 -1.068975 2.791385 15.608904 -0.990530 903
2.766756 15.474493 -1.129488 2.831531 15.521972 -1.083084 472
2.706943 15.544156 -1.058731 2.752946 15.613709 -0.987770 902
2.657765 15.542020 -1.058921 2.701835 15.612759 -0.988368 399
2.585787 15.552612 -1.048424 2.646263 15.614199 -0.986757 861
2.504786 15.547975 -1.052342 2.577277 15.613893 -0.986874 673
2.334644 15.550442 -1.050390 2.380573 15.602896 -0.996173 542
2.385785 15.546200 -1.052790 2.432956 15.611332 -0.987415 727
2.436397 15.541756 -1.060685 2.500570 15.607134 -0.992113 860
2.509371 15.490787 -1.124732 2.592949 15.544834 -1.055960 379
2.608152 15.492313 -1.124697 2.688823 15.544033 -1.056479 862
2.354360 15.489152 -1.128237 2.427387 15.544525 -1.058136 359
2.438312 15.492878 -1.124881 2.506667 15.537413 -1.066199 812
2.762190 15.468459 -1.160151 2.828024 15.486740 -1.131447 736
2.598019 15.451795 -1.191626 2.695842 15.490424 -1.128998 610
2.425573 15.445762 -1.204422 2.501123 15.488452 -1.131617 813
2.357172 15.429100 -1.234156 2.419743 15.488637 -1.130048 30
2.755114 15.428551 -1.235644 2.778347 15.464558 -1.167289 286
2.425773 15.417200 -1.261360 2.490131 15.438900 -1.216832 566
2.913482 15.486516 -1.058450 3.047267 15.568282 -1.009567 1957
2.900579 15.467671 -1.161359 3.062735 15.483101 -1.077622 32
2.869122 15.484723 -1.067633 2.911250 15.575900 -1.021274 471
2.795884 15.513200 -1.093330 2.865032 15.580367 -1.017138 197
3.079552 15.469347 -1.156152 3.194533 15.494598 -1.012435 1360
3.198303 15.451247 -1.190509 3.269924 15.493141 -1.020744 1035
2.832480 15.468800 -1.158914 2.889797 15.506422 -1.067975 33
3.279629 15.454850 -1.185032 3.362910 15.469906 -1.152653 1484
3.060542 15.429827 -1.233736 3.142668 15.469108 -1.157434 271
3.145905 15.428213 -1.237287 3.192897 15.469240 -1.157293 808
2.913476 15.428964 -1.235504 2.998698 15.465891 -1.164744 577
2.833198 15.429048 -1.236576 2.906724 15.464262 -1.167367 1189
2.791402 15.427347 -1.238038 2.820965 15.464262 -1.167370 10
3.006583 15.428375 -1.242673 3.051270 15.461894 -1.171369 944
3.203550 15.427263 -1.242500 3.325275 15.450200 -1.193740 31
4.274867 15.505895 -0.655304 4.368111 15.565344 -0.610972 1845
4.163423 15.505600 -0.687017 4.266020 15.569509 -0.587400 1589
4.199138 15.428695 -0.662593 4.355339 15.490899 -0.617220 706
4.094181 15.491815 -0.712044 4.157307 15.561130 -0.635131 1813
3.997220 15.500519 -0.748484 4.082353 15.558574 -0.649564 1487
3.925062 15.493893 -0.777417 3.988845 15.557618 -0.654757 1740
3.849979 15.430100 -0.811411 4.159190 15.491670 -0.673839 131
3.630992 15.523252 -0.836977 3.829594 15.556336 -0.662078 1616
3.837889 15.505086 -0.815781 3.911535 15.551827 -0.687641 439
3.710193 15.428511 -0.895941 3.840406 15.523100 -0.815925 1744
3.617789 15.441487 -0.952481 3.703798 15.519637 -0.870187 345
3.520224 13.752287 -0.744344 3.615550 13.908843 -0.666937 1929
3.498900 14.093268 -0.826608 3.614909 14.296116 -0.730696 1928
3.487833 14.156099 -0.000000 3.612949 14.333551 -0.000000 2712
3.471076 13.741938 0.000000 3.611439 13.973669 0.000000 2347
3.465344 13.921802 -0.810508 3.613951 14.004100 -0.696457 527
3.460931 14.018470 -0.823234 3.604034 14.079993 -0.716850 2254
3.417362 14.362029 -0.000000 3.609172 14.545651 -0.000000 2597
3.356179 14.560455 -0.000000 3.611281 14.732286 -0.000000 2598
3.258698 14.005225 -0.000000 3.611796 14.129272 -0.000000 2308
3.321790 14.150323 -0.000000 3.462942 14.307529 -0.000000 2148
3.212404 13.875551 -0.000000 3.450869 14.003620 -0.000000 2362
3.196916 13.740197 -0.000000 3.441173 13.864448 -0.000000 2305
3.209221 14.324393 -0.000000 3.387953 14.548036 -0.000000 2307
3.193416 14.559576 -0.000000 3.333906 14.726032 -0.000000 2345
3.089974 14.054792 -0.000000 3.305431 14.276390 -0.000000 2545
3.072460 14.265668 -0.000000 3.221878 14.529273 -0.000000 2544
3.081998 13.762266 0.000000 3.200612 14.023094 0.000000 2546
2.833461 14.523852 -0.000000 2.928731 14.730735 -0.000000 2714
2.705220 14.523609 -0.000000 2.819853 14.725818 -0.000000 2358
2.952431 14.556331 -0.000000 3.168914 14.725601 -0.000000 2344
2.908909 13.868838 -0.000000 3.082981 14.033198 -0.000000 2343
2.918067 14.056290 -0.000000 3.055590 14.242718 -0.000000 2346
2.880703 14.257771 -0.000000 3.052968 14.372418 -0.000000 2238
2.879069 14.393053 -0.000000 3.046413 14.567024 -0.000000 2578
2.701275 13.748674 -0.000000 3.052858 13.880643 -0.000000 1661
2.742188 13.889758 -0.000000 2.896941 14.128380 -0.000000 2460
2.682359 14.258535 -0.000000 2.866106 14.496534 -0.000000 2333
2.509941 14.111028 -0.000000 2.847847 14.251196 -0.000000 2293
2.517419 13.925760 -0.000000 2.722180 14.116608 -0.000000 2633
2.535434 13.739749 -0.000000 2.689395 13.894914 -0.000000 2311
2.507893 14.500550 -0.000000 2.683706 14.714132 -0.000000 2080
2.513155 14.267947 -0.000000 2.660686 14.485006 -0.000000 2301
4.493228 15.218342 -0.000000 4.597822 15.419752 -0.000000 2674
4.350324 15.241404 -0.000000 4.478986 15.423673 -0.000000 2288
4.484508 15.336457 -0.583547 4.596743 15.415421 -0.558640 1549
4.827859 15.301278 -0.191886 4.827900 15.420406 -0.075323 2602
4.776619 15.303150 -0.555063 4.827937 15.413491 -0.236057 1946
4.737672 15.272145 -0.046853 4.827900 15.421362 0.000000 2605
4.383482 15.252359 -0.600886 4.460151 15.421036 -0.565988 440
4.694873 15.251570 -0.605522 4.769872 15.415978 -0.533784 1854
4.618891 15.249535 -0.616994 4.683733 15.409221 -0.538892 272
4.774691 15.279986 -0.543493 4.827900 15.343578 -0.440032 2026
4.573276 15.255878 -0.580960 4.620221 15.325911 -0.542982 1824
4.470387 15.250710 -0.610412 4.557816 15.323933 -0.550985 676
4.620530 15.128224 -0.000001 4.748697 15.413109 -0.000000 2604
4.827897 15.146503 -0.187467 4.827900 15.266596 -0.101120 2282
4.827900 15.103009 -0.412735 4.827900 15.296955 -0.193347 2189
4.827900 15.123227 -0.492206 4.827900 15.264508 -0.428870 2342
4.764952 15.126990 -0.070284 4.827900 15.255795 0.000000 2606
4.772182 15.108575 -0.619540 4.827900 15.264900 -0.510092 651
4.343978 14.974159 -0.000000 4.518362 15.194632 -0.000000 2279
4.511840 14.948508 -0.000000 4.655494 15.207397 -0.000000 2360
4.675947 15.014387 -0.066440 4.827900 15.115692 -0.000000 2603
4.827896 15.011593 -0.172294 4.827900 15.096825 -0.088390 2274
4.827900 14.977357 -0.596430 4.827900 15.094117 -0.325358 2361
4.827900 14.931473 -0.367332 4.827900 15.071058 -0.180717 2667
4.665808 14.928908 -0.152626 4.827900 15.007039 0.000002 2316
4.782544 14.734521 -0.072422 4.827900 14.917850 0.000036 2669
4.676892 14.743793 -0.000023 4.767622 14.905336 0.000001 2555
4.827900 14.823701 -0.212578 4.827900 14.911837 -0.101393 2117
4.827900 14.736661 -0.619288 4.827900 14.968882 -0.510284 48
4.827900 14.730113 -0.476737 4.827900 14.948971 -0.374986 2380
4.348246 14.738332 -0.000000 4.515559 14.937670 -0.000000 2285
4.530827 14.738985 -0.000000 4.675628 14.914808 -0.000000 2554
4.827890 14.734214 -0.358832 4.827900 14.906091 -0.093937 2186
3.413451 13.627702 -0.000000 3.619179 13.737094 0.000000 2566
3.415403 13.538410 -0.068081 3.551913 13.591254 0.000026 1066
3.578572 13.603348 -0.663635 3.649969 13.719841 -0.609617 2094
3.563116 13.553434 -0.060818 3.632679 13.590354 0.000000 1254
3.539572 13.535300 -0.677161 3.643361 13.592211 -0.506004 654
3.476892 13.536589 -0.497882 3.635117 13.555820 -0.197929 1064
3.420567 13.538244 -0.192567 3.627387 13.557889 -0.078244 1065
3.455456 13.605425 -0.769073 3.557318 13.739182 -0.676990 1653
3.406944 13.520538 -0.769854 3.526937 13.585537 -0.633439 334
3.391275 13.522567 -0.613243 3.513017 13.536406 -0.539670 1667
3.331934 13.530377 -0.007980 3.409433 13.730963 -0.000000 2295
3.281628 13.519677 -0.515761 3.448210 13.538191 -0.235257 416
3.202916 13.514158 -0.230492 3.388914 13.534810 -0.022757 588
3.149036 13.490287 -0.695782 3.368942 13.519554 -0.459116 655
3.191098 13.515475 -0.012573 3.309811 13.730175 0.000000 589
3.159458 13.503049 -0.419367 3.256025 13.515251 -0.286397 1078
2.978426 13.650683 -0.000000 3.072809 13.738297 -0.000000 2557
2.967540 13.484287 -0.123180 3.088313 13.624449 -0.000000 1058
3.097010 13.502470 -0.140157 3.185588 13.713531 -0.000000 1214
2.963627 13.480928 -0.297700 3.193738 13.511826 -0.164957 715
2.921697 13.465050 -0.646241 3.129572 13.497478 -0.463506 502
2.875569 13.466495 -0.448144 3.125013 13.500232 -0.332576 1002
2.843296 13.465510 -0.320740 2.946891 13.480673 -0.129946 185
2.826128 13.500747 -0.000002 2.947868 13.733009 0.000003 2483
2.798637 13.459728 -0.099626 2.955090 13.486308 -0.000188 945
2.713798 13.435203 -0.644705 2.901928 13.465815 -0.394841 1083
2.700237 13.440894 -0.393134 2.839725 13.461541 -0.130099 718
2.662079 13.511703 -0.000004 2.802570 13.723135 0.000000 1213
2.657144 13.437628 -0.089632 2.789353 13.497207 0.000071 929
2.513559 13.399966 -0.633846 2.693343 13.433113 -0.485439 365
2.507543 13.408381 -0.462892 2.687733 13.439407 -0.146842 484
2.520497 13.475060 -0.000004 2.647533 13.731221 0.000000 1228
2.511939 13.413537 -0.125356 2.644488 13.455151 0.000003 396
3.429906 15.092814 -0.988457 3.628746 15.269834 -0.000000 2654
3.245574 15.087661 -0.000000 3.441356 15.208255 -0.000000 2535
3.297627 14.902028 -0.000000 3.488406 15.083045 -0.000000 2653
3.316828 14.735124 -0.000000 3.533402 14.881959 -0.000000 2271
3.393651 15.288800 -0.000000 3.634743 15.423440 -0.000000 2536
3.215361 15.236220 -0.000000 3.382529 15.424048 -0.000000 2239
3.596592 15.055553 -0.000000 3.730604 15.179215 -0.000000 2533
3.488424 14.872128 -0.000000 3.732908 15.067515 -0.000000 2246
3.649428 15.244181 -0.913120 3.738087 15.422202 -0.855927 337
3.653516 15.188133 -0.965273 3.730404 15.236072 -0.833774 1665
3.642003 15.212112 -0.845609 3.735389 15.417029 -0.000000 2251
3.565652 14.736157 -0.000000 3.725389 14.845896 -0.000000 2276
3.500450 15.166996 -1.085143 3.737845 15.183551 -0.992348 1858
3.501790 15.134692 -1.268357 3.708321 15.164067 -1.101917 54
3.560140 15.220581 -0.962711 3.626987 15.353628 -0.906510 1664
3.526998 15.184516 -0.985790 3.643062 15.217669 -0.889557 1609
3.419061 15.368258 -1.090669 3.616422 15.427018 -0.936546 682
3.464241 15.223801 -1.045060 3.537994 15.363067 -0.969320 336
3.393384 15.166877 -1.085950 3.492380 15.201684 -0.997457 705
3.414172 15.219206 -1.089589 3.452914 15.347566 -1.033750 212
3.338895 15.133981 -1.272342 3.487892 15.194778 -1.095870 433
3.315312 15.329579 -1.184425 3.392983 15.426316 -1.117332 1623
3.310523 15.209509 -1.180864 3.391909 15.314573 -1.091954 1397
3.265965 15.145160 -1.208917 3.328079 15.190629 -1.145036 1605
3.218812 15.208149 -1.271162 3.308080 15.340687 -1.169479 419
3.205439 15.358129 -1.275964 3.313102 15.425215 -1.199748 1418
3.205226 15.133674 -1.275835 3.302782 15.194218 -1.220282 51
3.179782 14.765465 -0.000000 3.289029 15.020320 -0.000000 2237
2.594940 15.151378 -0.000000 2.743059 15.280289 -0.000000 2716
2.582669 14.951570 -0.000000 2.756687 15.121223 -0.000000 2378
2.997832 14.742197 -0.000000 3.162361 14.960155 -0.000000 2715
2.834609 14.737230 -0.000000 2.977032 14.938513 -0.000000 2713
2.679836 14.768944 -0.000000 2.816189 15.014285 -0.000000 2241
2.893982 15.239692 0.000000 3.050520 15.396758 0.000000 2685
2.846997 14.957394 -0.000000 3.051035 15.189365 -0.000000 2242
3.063884 15.248541 -0.000000 3.204069 15.411613 -0.000000 2647
3.060608 14.988049 -0.000000 3.214773 15.216195 -0.000000 2243
2.765285 15.055602 -0.000000 2.883372 15.297828 -0.000000 2556
2.572617 15.318145 -0.000000 2.855056 15.423047 -0.000000 2391
3.074770 15.415364 -1.272916 3.186825 15.426488 -1.242511 960
2.855510 15.411842 -1.275334 3.050381 15.425119 -1.245311 784
2.705011 15.411338 -1.276549 2.834192 15.423755 -1.245850 52
2.584343 14.735739 -0.000000 2.675643 14.957335 -0.000000 1570
4.133092 15.174828 -0.000000 4.330935 15.425944 -0.000000 2676
3.992871 15.171138 -0.000000 4.093261 15.277292 -0.000000 2580
3.984587 14.984466 -0.000000 4.334702 15.158694 -0.000000 2273
3.746835 14.847699 -0.000000 3.940920 14.983597 -0.000000 2524
3.749640 14.735347 -0.000000 3.936761 14.828781 -0.000000 1960
4.284396 15.254358 -0.620340 4.374753 15.425702 -0.584413 97
4.192245 14.991647 -0.000000 4.337072 15.100690 -0.000000 2357
4.140585 14.739548 -0.000000 4.339568 14.968627 -0.000000 2356
3.958251 14.734389 -0.000000 4.117008 14.969614 -0.000000 2272
3.977233 15.289093 -0.000000 4.177138 15.424765 -0.000000 2350
3.748220 14.973215 -0.000000 3.960694 15.242446 -0.000000 2313
3.742329 15.276096 -0.000000 3.964173 15.426672 -0.000000 2359
4.085153 13.722316 -0.000000 4.136892 13.845787 -0.000000 2418
4.076131 13.591061 -0.085905 4.187990 13.676846 0.000019 893
3.802232 13.698306 -0.000000 3.890572 13.887792 -0.000000 2415
3.806707 13.573514 -0.057406 3.890254 13.651701 0.000000 880
3.896738 13.678667 -0.000001 4.088493 13.928996 0.000000 2414
3.903653 13.580343 -0.055219 3.993402 13.612432 0.000004 267
3.628646 13.738456 -0.000000 3.772195 13.933107 -0.000000 2328
3.723420 13.567100 -0.034446 3.796202 13.725729 0.000000 2187
4.138818 13.681939 -0.000002 4.345807 13.897315 0.000000 42
4.004267 13.587069 -0.040653 4.068723 13.656534 0.000000 1316
3.633226 13.561109 -0.046489 3.709878 13.717646 0.000000 60
4.200544 13.597363 -0.074409 4.328679 13.648323 0.000000 1069
4.214589 13.596850 -0.184363 4.322869 13.601993 -0.097860 1597
4.050447 13.587412 -0.268428 4.180687 13.594944 -0.099982 1390
3.651013 13.557965 -0.327857 3.839596 13.575256 -0.065087 259
3.853865 13.574081 -0.337160 4.030416 13.588199 -0.067051 835
4.294324 13.598138 -0.327584 4.343796 13.726466 -0.225161 1598
4.202295 13.594546 -0.353928 4.279200 13.765950 -0.228684 1129
4.143070 13.590475 -0.372411 4.190572 13.727378 -0.303694 1699
4.037057 13.584248 -0.401112 4.142256 13.709759 -0.305427 547
4.228002 13.785455 -0.386932 4.341380 13.933364 -0.336541 1961
3.670858 13.557482 -0.422738 3.849027 13.571442 -0.351865 937
3.937593 13.575902 -0.435683 4.028571 13.631483 -0.365491 1735
4.081627 13.817684 -0.434732 4.193069 13.921235 -0.377983 2056
3.945112 13.718084 -0.462615 4.224368 13.801175 -0.361542 1876
3.867545 13.570637 -0.485576 3.922189 13.716392 -0.367990 686
3.934208 13.642247 -0.453520 4.027253 13.713508 -0.410493 1916
3.935316 13.804432 -0.492592 4.065735 13.932800 -0.423394 1973
3.764209 13.562304 -0.524148 3.864328 13.650973 -0.429456 938
3.667959 13.553525 -0.512606 3.751947 13.560670 -0.449015 1671
3.776967 13.672450 -0.539396 3.898586 13.768145 -0.485595 1915
3.760354 13.778914 -0.577466 3.912187 13.925149 -0.484734 2055
3.651721 13.548282 -0.594851 3.777942 13.648100 -0.525901 16
3.636905 13.662153 -0.638419 3.762120 13.757531 -0.546583 1913
3.616706 13.761682 -0.676268 3.744362 13.931100 -0.577418 2000
4.781298 14.269527 -0.370710 4.827900 14.340217 -0.177128 2711
4.639171 14.274132 -0.374093 4.757196 14.340319 -0.361757 1825
4.778264 14.627991 -0.113345 4.827922 14.724657 0.000000 2670
4.775954 14.511325 -0.108369 4.827919 14.616847 0.000000 2668
4.603811 14.511078 -0.000002 4.754126 14.722968 -0.000000 2270
4.481373 14.551583 -0.000000 4.580010 14.729926 -0.000000 2666
4.312087 14.574174 -0.000000 4.451247 14.726861 -0.000000 2413
4.827896 14.511616 -0.445587 4.827900 14.695357 -0.321959 2600
4.827875 14.484590 -0.621288 4.827900 14.726617 -0.468240 1630
4.315086 14.398377 -0.000000 4.557197 14.543166 -0.000000 2587
4.307573 14.277490 -0.000000 4.515772 14.374208 -0.000000 2196
4.827899 14.512265 -0.302085 4.827900 14.703116 -0.140407 2370
4.754291 14.433730 -0.433522 4.827960 14.497296 -0.279593 2365
4.698188 14.428000 -0.420694 4.741498 14.451400 -0.388561 1826
4.726919 14.377169 -0.207292 4.827900 14.500052 0.000000 2198
4.754807 14.264923 -0.141967 4.827922 14.375964 0.000000 2197
4.536304 14.279443 -0.000001 4.719423 14.492405 -0.000000 2085
4.723644 14.347726 -0.387251 4.827918 14.422200 -0.206912 2125
4.458410 14.264872 -0.401028 4.631830 14.368424 -0.370611 1775
4.622775 14.344912 -0.393853 4.699565 14.421568 -0.379185 1924
4.461648 14.389278 -0.423094 4.503332 14.446498 -0.407217 2037
4.588329 14.428966 -0.441615 4.693036 14.449880 -0.392103 1836
4.515277 14.373765 -0.449448 4.577289 14.448950 -0.395039 2088
4.727058 14.437062 -0.579733 4.827897 14.472524 -0.445426 1405
4.483951 14.413561 -0.606931 4.654021 14.436986 -0.474391 112
4.662244 14.409859 -0.628038 4.827900 14.436079 -0.480640 674
4.827880 14.445352 -0.786050 4.827900 14.531631 -0.646182 2659
4.731852 14.383179 -0.781696 4.827904 14.431559 -0.644730 726
4.827889 14.649326 -0.809031 4.827900 14.722493 -0.628077 2599
4.748196 14.650438 -0.929068 4.827942 14.726587 -0.869284 2135
4.345953 14.385325 -0.767300 4.597399 14.412259 -0.614555 1277
4.620278 14.385171 -0.768078 4.717022 14.407451 -0.641594 1956
4.789975 14.367650 -0.871816 4.827900 14.403661 -0.795184 1429
4.535374 14.363175 -0.900005 4.643112 14.415722 -0.770173 687
4.790468 14.408075 -0.880648 4.827900 14.447961 -0.804353 1878
4.790710 14.460648 -0.898518 4.827900 14.549321 -0.793567 1866
4.728935 14.367275 -0.884349 4.780136 14.459917 -0.818450 118
4.650557 14.366225 -0.884316 4.724493 14.430093 -0.829292 1430
4.447902 14.361550 -0.926256 4.531367 14.464500 -0.802423 1298
4.360390 14.355925 -0.935481 4.447591 14.461531 -0.806591 7
4.783950 14.555947 -0.914454 4.827900 14.638809 -0.667271 2134
4.549366 14.425107 -0.907896 4.631374 14.509873 -0.890558 1954
4.731659 14.478607 -0.915592 4.774373 14.634042 -0.888172 2175
4.607743 14.441870 -0.930524 4.726517 14.648721 -0.883857 1482
4.659756 14.658648 -0.936508 4.722133 14.721979 -0.923240 1993
4.449928 14.670368 -0.972793 4.628768 14.720482 -0.932682 1976
3.531232 14.307075 -0.829329 3.614212 14.384700 -0.757754 2202
3.498555 14.329276 -0.925532 3.613377 14.371900 -0.838236 2079
3.402658 14.196174 -0.920767 3.495628 14.367925 -0.835551 2201
3.419589 14.337687 -1.037399 3.489375 14.355522 -0.936308 2057
3.370500 13.742415 -0.862082 3.503451 13.812302 -0.736483 333
3.371475 13.824806 -0.882518 3.498351 13.923993 -0.766855 1994
3.373410 14.087631 -0.926802 3.486691 14.183947 -0.814657 1899
3.355440 13.938491 -0.922535 3.455406 14.075322 -0.810886 1763
3.235981 13.744702 -1.000505 3.345161 13.841580 -0.886905 2046
3.233289 13.847629 -1.023213 3.350350 13.958300 -0.896576 2090
3.303861 14.191662 -1.013145 3.400329 14.335669 -0.913638 2066
3.302417 14.336332 -1.044905 3.405556 14.356800 -0.928700 641
3.226501 13.970844 -1.049976 3.345462 14.097450 -0.936318 1750
3.539642 14.336793 -1.042501 3.592266 14.352726 -0.952059 642
3.244935 14.112070 -1.055173 3.339372 14.179975 -0.951440 1953
3.146764 13.747575 -1.108593 3.231865 13.969383 -1.030411 2091
3.208553 14.187553 -1.143892 3.329110 14.336013 -1.031759 2065
3.114987 14.059203 -1.216829 3.231213 14.163937 -1.064382 2092
3.353610 14.296076 -1.273389 3.450735 14.333486 -1.061115 232
3.475300 14.296037 -1.273797 3.610843 14.333431 -1.061441 1917
3.042958 13.858600 -1.276450 3.150608 13.965535 -1.120987 2128
3.064377 13.974662 -1.277956 3.207395 14.071487 -1.077373 297
3.121472 14.178150 -1.223447 3.197059 14.272506 -1.121500 234
3.124944 14.290435 -1.249296 3.217229 14.323337 -1.118895 1938
3.024509 13.745153 -1.282884 3.140289 13.847772 -1.124755 402
3.238974 14.296494 -1.271114 3.329443 14.312590 -1.179887 233
3.066113 14.092316 -1.284000 3.117778 14.301650 -1.239602 41
4.526755 13.934286 -0.000002 4.745126 14.129830 0.000013 2531
4.318973 13.932346 -0.000000 4.494552 14.140622 -0.000000 2406
4.747268 14.078399 -0.120901 4.827900 14.141141 0.000011 2530
4.773504 13.932250 -0.116998 4.827951 14.058374 0.000055 2407
4.827897 13.840990 -0.202118 4.827900 13.956258 -0.034565 2527
4.791183 13.822934 -0.306790 4.827900 13.979257 -0.235821 78
4.706660 14.147438 -0.144873 4.827900 14.260552 0.000000 2411
4.304989 14.147990 -0.000000 4.684343 14.254774 -0.000000 2104
4.380493 13.836424 -0.006844 4.827900 13.921976 0.000000 2152
4.827761 13.983696 -0.276671 4.827915 14.117686 -0.156815 2252
4.786175 13.989381 -0.327087 4.827934 14.116067 -0.292820 1827
4.827887 14.140631 -0.260896 4.827900 14.245988 -0.168593 2250
4.736641 14.124300 -0.358022 4.827900 14.260274 -0.280572 1828
4.366600 14.160001 -0.403212 4.452858 14.258400 -0.373219 2068
4.577501 14.119560 -0.366497 4.723647 14.257604 -0.337947 273
4.479024 14.056256 -0.386305 4.560517 14.258950 -0.343219 410
4.305857 14.055025 -0.395741 4.478900 14.144988 -0.354348 1875
4.523807 13.933534 -0.340446 4.670394 14.093563 -0.309423 2033
4.694932 13.805702 -0.333627 4.785947 14.118365 -0.280125 1990
4.301749 13.860684 -0.378937 4.375331 14.044325 -0.336290 2008
4.403571 13.850748 -0.359302 4.497496 14.041842 -0.316528 2062
4.514029 13.793400 -0.315397 4.662940 13.915905 -0.293852 79
4.655692 13.731663 -0.000003 4.784176 13.830537 -0.000000 2552
4.664455 13.610811 -0.096113 4.802795 13.704531 0.000002 1191
4.802926 13.730840 -0.067939 4.827932 13.836256 0.000000 2528
4.809071 13.611625 -0.060501 4.827900 13.711433 0.000000 1159
4.528910 13.726375 -0.293185 4.738900 13.845514 -0.264847 2041
4.309281 13.743850 -0.335644 4.500168 13.824856 -0.297264 224
4.753435 13.680000 -0.277457 4.827935 13.811234 -0.169834 1996
4.809205 13.610894 -0.160047 4.827910 13.803154 -0.075626 71
4.334175 13.603318 -0.036839 4.410657 13.760239 -0.000000 783
4.394190 13.602196 -0.304622 4.507299 13.728081 -0.267400 61
4.571108 13.609550 -0.075277 4.654149 13.793481 0.000000 629
4.602665 13.608280 -0.269873 4.692993 13.716754 -0.205173 630
4.710028 13.609178 -0.263208 4.764273 13.714688 -0.203815 1370
4.515219 13.606258 -0.280606 4.602494 13.716053 -0.138860 1103
4.348193 13.601225 -0.317162 4.387653 13.720351 -0.057995 144
4.509516 13.607751 -0.103999 4.553376 13.803156 -0.000000 1190
4.412685 13.605773 -0.096761 4.497713 13.819293 -0.000000 223
4.773029 13.609650 -0.250343 4.827900 13.657338 -0.181138 1766
4.635015 13.609471 -0.167041 4.765543 13.611044 -0.097697 1048
4.392607 13.602923 -0.246390 4.494167 13.607138 -0.128058 1700
3.830801 14.524824 -0.000000 4.014582 14.731158 -0.000000 2692
3.848266 14.290863 -0.000000 4.062524 14.492962 -0.000000 2404
3.772982 14.263557 -0.000000 3.896806 14.422386 -0.000000 2691
3.620268 14.279638 -0.000000 3.748846 14.490321 -0.000000 2075
4.156002 14.516971 -0.000000 4.298722 14.729950 -0.000000 2689
4.063162 14.265734 -0.000000 4.295319 14.487409 -0.000000 2412
3.983238 14.442261 -0.000000 4.143887 14.728120 -0.000000 2364
3.616003 14.480842 -0.000000 3.813386 14.722903 -0.000000 2396
3.842756 14.340533 -0.655701 3.960369 14.418018 -0.573959 2106
3.844224 14.273517 -0.608514 3.953496 14.324354 -0.550543 650
4.111797 14.263846 -0.620340 4.171519 14.432600 -0.467075 2021
4.039034 14.260886 -0.601873 4.104971 14.428975 -0.490878 411
3.961883 14.260215 -0.605476 4.037771 14.423628 -0.529759 1801
3.622549 14.260444 -0.744664 3.744726 14.342283 -0.667752 649
3.757034 14.272041 -0.796060 3.840699 14.406538 -0.623053 165
3.622539 14.360081 -0.799051 3.746106 14.398132 -0.682590 2061
4.033517 14.369282 -0.858016 4.148305 14.408292 -0.636890 1943
3.850869 14.370013 -0.853928 4.012665 14.402724 -0.668340 1741
4.093337 14.050198 -0.000000 4.292513 14.238037 -0.000000 2696
4.130145 13.933644 -0.000000 4.291407 14.024297 -0.000000 2693
3.874116 14.135242 -0.000000 4.074385 14.259375 -0.000000 2695
3.874166 13.941012 -0.000000 4.031650 14.104825 -0.000000 2690
4.221887 14.174261 -0.000000 4.297744 14.256042 -0.000000 2694
4.009997 13.944993 -0.000000 4.118406 14.031295 -0.000000 2687
3.750776 13.933731 -0.000000 3.843891 14.128663 -0.000000 2417
3.623541 14.109803 -0.000000 3.852767 14.247829 -0.000000 2688
3.617710 13.956800 -0.000000 3.729300 14.072343 -0.000000 2403
4.118285 13.934838 -0.433279 4.268819 14.028400 -0.381678 2652
3.975910 13.935267 -0.483882 4.092301 14.008745 -0.440327 143
3.759406 13.934188 -0.604381 3.824096 14.079906 -0.560756 2327
3.698950 13.938876 -0.645751 3.727782 14.081512 -0.612149 95
3.852807 13.937145 -0.557355 3.905215 14.072752 -0.518854 2076
4.115019 14.035203 -0.476121 4.193451 14.239287 -0.416017 2064
4.009559 14.033780 -0.501394 4.095766 14.252648 -0.458990 1894
3.619711 14.135969 -0.731940 3.738220 14.246850 -0.655379 2060
3.621994 14.047688 -0.710018 3.705797 14.120391 -0.651496 1904
3.833434 14.091972 -0.601312 3.959483 14.259133 -0.543234 2032
3.724539 14.091587 -0.645651 3.811944 14.246797 -0.599807 685
3.933521 13.951701 -0.532976 3.999825 14.237096 -0.486288 648
3.621994 13.949063 -0.696900 3.660863 14.028723 -0.661552 186
4.332180 14.623369 -0.992480 4.458967 14.713418 -0.962983 2159
4.302354 14.535134 -0.992059 4.398691 14.607971 -0.965212 1987
4.284421 14.585064 -1.014725 4.352203 14.708795 -0.995729 2105
4.168123 14.580555 -1.057062 4.267240 14.692242 -1.007387 1869
4.523339 14.591345 -0.950570 4.607545 14.680253 -0.922898 2042
4.430588 14.588612 -0.957969 4.508891 14.680848 -0.939485 1396
4.320313 14.289962 -0.438572 4.456326 14.412987 -0.399280 2036
4.322158 14.154338 -0.417457 4.432887 14.275527 -0.396553 1850
4.317628 14.414093 -0.472991 4.457435 14.445167 -0.420592 2035
4.326734 14.415551 -0.595898 4.462019 14.432368 -0.500495 1462
4.166730 14.371573 -0.502066 4.311391 14.439695 -0.445203 2007
4.176217 14.313782 -0.475659 4.284307 14.360621 -0.442831 2006
4.203210 14.418491 -0.579043 4.308681 14.429055 -0.519023 1812
4.252077 14.436336 -0.988281 4.328702 14.518344 -0.964843 1662
4.168845 14.429255 -1.036185 4.280482 14.560094 -0.992887 1446
4.180643 14.061674 -0.461771 4.287971 14.298870 -0.400236 412
4.515181 14.466470 -0.929670 4.626445 14.576753 -0.900656 1815
4.415241 14.474315 -0.958506 4.502555 14.582760 -0.926365 1340
4.176587 14.379774 -0.798819 4.315317 14.412665 -0.612074 644
4.327739 14.355146 -0.961716 4.401127 14.548315 -0.742774 1276
4.182665 14.346229 -0.999995 4.315090 14.418494 -0.947636 1531
4.181320 14.356488 -0.930589 4.302594 14.373448 -0.834564 1507
4.787105 15.125852 -1.010785 4.827900 15.191156 -0.948010 2390
4.732877 15.121537 -1.012386 4.779069 15.186159 -0.976243 623
4.771407 15.119468 -0.933337 4.827907 15.219812 -0.784671 2389
4.688483 15.197842 -0.909935 4.740480 15.221015 -0.778802 1472
4.827900 14.815019 -0.851445 4.827900 14.892107 -0.662282 2388
4.742914 14.821877 -0.960621 4.827900 14.900975 -0.875967 1980
4.827898 14.928831 -0.844357 4.827900 15.106101 -0.638512 2386
4.727174 14.987244 -0.984479 4.827958 15.090376 -0.890375 1780
4.827900 14.730790 -0.826960 4.827900 14.942929 -0.621398 2184
4.733648 14.732372 -0.946951 4.827965 14.812424 -0.763860 40
4.623499 14.732471 -0.964548 4.707792 14.852386 -0.936486 1977
4.529962 14.727542 -0.974755 4.608564 14.842183 -0.947739 1687
4.448993 15.203762 -0.876627 4.526300 15.238466 -0.679786 1811
4.468487 15.139608 -1.045221 4.521847 15.192357 -0.941106 39
4.689773 15.132436 -0.769820 4.827900 15.246927 -0.630324 1790
4.559445 14.864396 -0.995120 4.722303 14.993300 -0.962725 1781
4.724726 14.905436 -0.973171 4.827900 14.976131 -0.865220 1514
4.443494 14.870721 -1.021756 4.537658 14.989158 -0.982382 1770
4.444243 14.728312 -0.996194 4.528824 14.854700 -0.959460 8
4.440807 15.006727 -1.045165 4.543606 15.119484 -1.006706 1577
4.528100 15.210634 -0.837603 4.686592 15.246852 -0.632216 1569
4.529442 15.132790 -1.035310 4.640867 15.206610 -0.860407 151
4.563522 15.010969 -1.019420 4.653834 15.132404 -0.992813 1520
4.659376 15.008999 -1.003532 4.827900 15.113152 -0.985640 238
4.657695 15.121616 -1.017667 4.722594 15.194512 -0.928915 278
4.440890 15.132765 -1.055440 4.480051 15.180585 -1.007883 9
3.739059 15.205266 -0.867994 3.864118 15.235225 -0.763107 1893
3.759726 15.175176 -1.038693 3.865264 15.198296 -0.907565 697
4.182644 15.287400 -0.649273 4.247244 15.410106 -0.621153 1872
4.106092 15.282852 -0.679460 4.165962 15.424489 -0.648333 675
3.974904 15.232759 -0.712171 4.104112 15.313707 -0.658344 1857
3.988180 15.208103 -0.852182 4.099851 15.229710 -0.729549 1767
4.115723 15.242094 -0.659007 4.282813 15.280538 -0.602465 1798
4.121782 15.215337 -0.810986 4.275528 15.239515 -0.673849 390
4.297344 15.223247 -0.766138 4.429338 15.253277 -0.597037 1791
4.013645 15.326200 -0.721907 4.077445 15.426687 -0.689286 696
3.747439 15.337828 -0.848242 3.842426 15.417948 -0.800166 1731
3.847224 15.299204 -0.788947 3.978581 15.427240 -0.723418 103
3.750013 15.236401 -0.836414 3.857493 15.330851 -0.762562 130
3.871880 15.209384 -0.844580 3.966264 15.294367 -0.711847 1657
4.231850 15.191451 -0.946519 4.430990 15.220124 -0.783785 1476
4.078279 15.171309 -1.060718 4.233735 15.213124 -0.823612 288
3.887721 15.175712 -1.035543 4.067634 15.207941 -0.852967 1650
4.271561 15.143400 -1.078750 4.436168 15.187560 -0.968547 442
3.933038 15.147597 -1.194100 4.048620 15.170850 -1.063089 1444
3.755215 15.133498 -1.275327 3.900151 15.170136 -1.067320 464
4.223150 15.101440 -1.121457 4.337288 15.167294 -1.082573 774
4.128175 15.097757 -1.164508 4.216717 15.165872 -1.091560 1480
3.922116 15.087165 -1.274369 4.047802 15.146442 -1.199479 1109
4.056360 14.978305 -1.198955 4.116161 15.166621 -1.087389 1241
4.338807 14.966396 -1.076653 4.437180 15.130987 -1.028287 179
4.128036 14.976916 -1.144936 4.215377 15.083354 -1.106053 462
4.215574 14.972549 -1.107408 4.327287 15.087110 -1.058853 352
3.902074 14.970874 -1.271712 4.046183 15.078929 -1.186547 747
3.080179 13.635739 -1.181111 3.183253 13.738544 -1.044078 2126
3.067658 13.529292 -1.181198 3.166078 13.618903 -1.045307 1627
3.184057 13.635297 -1.051663 3.265978 13.738958 -0.948310 2081
3.183979 13.554816 -1.030652 3.269308 13.616028 -0.928018 1749
3.083813 13.456298 -1.107118 3.157561 13.510000 -1.042383 1986
3.063357 13.449860 -1.174295 3.096596 13.519525 -1.121618 562
3.013962 13.531865 -1.284616 3.078131 13.740285 -1.191218 1908
2.993130 13.430281 -1.280579 3.058703 13.516393 -1.188930 319
3.376263 13.600493 -0.836672 3.451951 13.737596 -0.756781 1851
3.270746 13.609087 -0.936550 3.371324 13.741798 -0.844031 11
3.092228 13.464294 -1.036671 3.227809 13.542348 -0.948814 994
3.266224 13.491616 -0.921037 3.341223 13.595300 -0.826706 1654
3.164737 13.483542 -0.943998 3.257816 13.536200 -0.829691 285
3.162447 13.487290 -0.810737 3.317807 13.508932 -0.705163 1153
2.515684 13.393058 -0.816133 2.771350 13.434947 -0.647592 957
3.343422 13.504750 -0.843754 3.420758 13.589687 -0.730013 872
2.783484 13.429832 -0.880167 2.978056 13.467569 -0.679943 318
2.995871 13.454965 -0.943939 3.144525 13.486645 -0.667909 873
2.512093 13.375204 -1.071194 2.723814 13.420395 -0.841002 821
2.735034 13.408538 -1.086611 2.963604 13.446182 -0.890038 869
2.975392 13.439443 -1.222243 3.063058 13.457422 -0.987522 403
2.515600 13.353336 -1.274196 2.671683 13.394968 -1.083063 1
2.689883 13.384506 -1.285824 2.974289 13.431768 -1.112825 150
4.091525 14.424663 -1.067938 4.160504 14.582609 -1.033076 2115
4.007051 14.418511 -1.114636 4.079652 14.539190 -1.061440 1540
3.624316 14.347959 -0.979073 3.819597 14.376387 -0.817780 1959
3.828481 14.340812 -1.019704 3.953975 14.366274 -0.875106 59
3.974310 14.337900 -1.040913 4.171638 14.417556 -0.883346 1805
4.107267 14.339300 -1.028275 4.181835 14.351867 -0.957007 1275
4.134062 14.613440 -1.076032 4.284175 14.729104 -1.022444 2025
4.012079 14.330050 -1.089359 4.105057 14.412988 -1.044882 1834
3.616416 14.316380 -1.158227 3.807507 14.344593 -0.998086 1381
3.935360 14.322400 -1.124224 3.999678 14.352960 -1.039337 1747
4.005584 14.553154 -1.139898 4.114186 14.645427 -1.071701 1541
3.831800 14.315304 -1.174183 3.930528 14.347493 -1.045485 310
4.016816 14.656350 -1.142950 4.115647 14.721629 -1.086027 2098
3.883476 14.353942 -1.182677 3.988552 14.464428 -1.109482 2028
3.895446 14.540447 -1.193126 3.988754 14.654569 -1.141371 2054
3.828434 14.468534 -1.230656 3.986546 14.529409 -1.123628 1765
3.816451 14.359050 -1.231305 3.858618 14.455867 -1.189848 1550
3.829419 14.672940 -1.274103 3.999525 14.727931 -1.157064 1533
3.620296 14.296438 -1.271704 3.728200 14.313915 -1.172181 201
3.735952 14.295475 -1.276815 3.853705 14.347203 -1.177923 1382
3.793101 14.533581 -1.272399 3.908124 14.657012 -1.196690 1199
3.752756 14.358978 -1.276654 3.799395 14.533189 -1.240364 1479
3.976522 14.735627 -1.190936 4.039979 14.848350 -1.136245 1950
3.905413 14.737766 -1.233390 3.965586 14.852087 -1.184268 1249
4.274372 14.814210 -1.069353 4.337746 14.962435 -1.027212 1870
4.203763 14.818238 -1.093720 4.257073 14.948275 -1.056723 1286
3.914469 14.858616 -1.241397 4.048047 14.967193 -1.157652 1708
4.345976 14.729389 -1.045515 4.429982 14.963167 -0.985450 1519
4.053372 14.825547 -1.155389 4.191328 14.965961 -1.083618 1246
3.832004 14.746757 -1.276648 3.902024 14.945737 -1.234879 68
4.213980 14.735823 -1.060479 4.334970 14.807096 -1.013888 1270
4.064992 14.731852 -1.129612 4.196354 14.811162 -1.069570 53
2.982311 14.115334 -2.298270 3.090660 14.150286 -2.100069 422
2.956557 14.174859 -2.515945 3.090273 14.268648 -2.499398 2059
2.960837 14.098760 -2.392298 3.078068 14.108357 -2.337835 2217
2.948226 14.083522 -2.492887 3.085279 14.138048 -2.420979 156
2.916545 14.154704 -2.075136 3.085490 14.182985 -1.914733 1651
2.875126 14.106054 -2.351013 2.951236 14.138381 -2.167640 1906
2.843244 14.138905 -2.164682 2.941603 14.154335 -2.077103 1907
2.839344 14.083546 -2.500732 2.940119 14.182374 -2.460610 1983
2.827396 14.190751 -2.518640 2.934464 14.283922 -2.502200 2145
2.722633 14.084594 -2.472930 2.914409 14.099441 -2.388530 1633
2.769745 14.013124 -1.945559 2.866382 14.183700 -1.872115 2210
2.754275 14.055926 -2.027687 2.865975 14.174508 -1.957399 2190
2.719039 13.947207 -2.276114 2.835274 14.136017 -2.171226 2248
2.722337 14.082800 -2.518149 2.831228 14.281133 -2.475433 6
2.720928 14.100220 -2.384209 2.830779 14.114259 -2.304016 669
2.757008 13.830587 -1.955735 2.782252 13.978938 -1.872615 1846
2.728291 14.092063 -2.165746 2.810964 14.160938 -2.039511 2249
2.747391 13.854650 -2.019027 2.761699 14.038600 -1.960400 415
2.724833 13.949547 -2.160499 2.747539 14.081786 -2.041825 670
2.719225 13.829703 -2.184863 2.741131 13.932960 -2.031896 2163
2.708115 13.973526 -2.328146 2.716664 14.123138 -2.236389 2162
2.706471 13.840321 -2.328416 2.716573 13.953509 -2.216328 1867
2.703850 13.908208 -2.423730 2.708986 14.106175 -2.335510 1982
2.670931 13.914293 -2.508941 2.714987 14.228928 -2.438404 1773
2.576303 13.834627 -2.451488 2.705040 13.903058 -2.346942 2648
2.452807 13.925700 -2.485293 2.667959 14.094814 -2.455476 1939
2.429671 14.123774 -2.518151 2.659910 14.281148 -2.490398 2121
2.409397 13.831138 -2.450110 2.520826 13.895264 -2.438810 1804
2.227205 13.829662 -2.468183 2.434918 13.997756 -2.438547 218
2.232248 14.166011 -2.518963 2.413006 14.285756 -2.497847 1969
2.218860 14.020928 -2.495311 2.417753 14.151633 -2.472267 2224
2.941689 13.844912 -1.458970 2.974156 13.943483 -1.394737 2299
2.883238 13.839472 -1.587151 2.937505 13.974014 -1.472749 1688
2.961214 13.960227 -1.450071 3.042392 14.087816 -1.296468 2212
2.980776 13.828890 -1.389419 3.025554 13.946568 -1.295587 231
2.923385 14.154020 -1.550360 2.994773 14.262761 -1.456654 2199
2.898886 14.183075 -1.618292 2.999927 14.245275 -1.561300 601
2.983885 14.241709 -1.442616 3.133081 14.282482 -1.346588 1732
3.027087 14.233660 -1.627124 3.134859 14.263422 -1.458430 1861
2.973739 14.214412 -1.736517 3.128325 14.231582 -1.639020 1925
2.949747 14.185574 -1.900051 3.133880 14.210261 -1.760080 1652
2.864544 14.156869 -1.683671 2.911653 14.233725 -1.624383 2119
2.831698 14.158584 -1.764584 2.929630 14.221087 -1.697402 1779
3.049342 14.063795 -1.332915 3.076224 14.283026 -1.287361 569
2.965676 14.101358 -1.451576 3.034396 14.234918 -1.337315 2142
2.787650 14.092197 -1.898926 2.932950 14.206168 -1.782551 2110
2.829492 14.051035 -1.752509 2.897937 14.153175 -1.593703 2109
2.900094 13.991739 -1.575600 2.954299 14.125776 -1.466226 2146
2.785942 13.978831 -1.868454 2.828144 14.063975 -1.744725 98
2.840411 13.949025 -1.711517 2.888253 14.041592 -1.593109 671
2.832578 13.854578 -1.712491 2.875120 13.938444 -1.593757 2083
2.782252 13.810820 -1.870801 2.822647 13.961290 -1.740117 72
2.775090 13.669200 -1.861947 2.811614 13.829960 -1.746892 2209
2.773096 13.559697 -1.857304 2.807240 13.643092 -1.737976 2093
2.815740 13.732764 -1.730853 2.894392 13.839062 -1.537546 2050
2.946172 13.634195 -1.402796 3.013481 13.823170 -1.298457 2095
2.903808 13.623449 -1.510614 2.945977 13.824323 -1.417753 324
2.808321 13.554684 -1.740823 2.845672 13.724169 -1.633700 2002
2.846400 13.549513 -1.625838 2.896288 13.715469 -1.502683 2133
2.956746 13.509557 -1.370663 2.996604 13.626611 -1.294882 1966
2.881749 13.393775 -1.499825 2.928503 13.597961 -1.423357 152
2.890260 13.398999 -1.422525 2.946417 13.579425 -1.369326 1599
2.800681 13.400447 -1.730435 2.826171 13.542107 -1.651303 668
2.766053 13.399803 -1.855637 2.792689 13.539330 -1.744198 219
2.830064 13.399619 -1.630960 2.881921 13.539679 -1.512291 1796
2.806320 13.396646 -1.358725 2.986910 13.489297 -1.290995 672
2.722281 13.704356 -2.128292 2.744864 13.808309 -1.996365 2513
2.721773 13.529239 -2.121320 2.744904 13.689375 -1.987413 2166
2.709378 13.683049 -2.258604 2.722358 13.819590 -2.138647 2329
2.703909 13.693639 -2.377627 2.709010 13.829020 -2.278184 2164
2.711047 13.510516 -2.219500 2.720574 13.668499 -2.129469 2165
2.720833 13.415771 -2.095757 2.736600 13.508099 -1.989326 423
2.613516 13.679940 -2.434432 2.703963 13.831381 -2.389711 1905
2.704783 13.403952 -2.291816 2.715588 13.495131 -2.135843 2154
2.653752 13.398455 -2.378013 2.703883 13.486400 -2.331186 2140
2.371211 13.403578 -2.378067 2.616822 13.486690 -2.363411 2139
2.244855 13.416945 -2.377029 2.346243 13.480792 -2.365770 115
2.642512 13.586912 -2.407909 2.705170 13.678800 -2.312290 2138
2.673808 13.493390 -2.393476 2.704054 13.575224 -2.335656 1829
2.232947 13.736570 -2.435974 2.564988 13.815048 -2.422125 1677
2.746021 13.583947 -2.004548 2.769216 13.823703 -1.889453 2070
2.407951 13.505684 -2.417847 2.599960 13.712419 -2.381413 2018
2.216040 13.498329 -2.416515 2.390848 13.704763 -2.380126 1676
2.704671 13.498551 -2.306103 2.709913 13.668161 -2.224279 2017
2.739080 13.416148 -1.983170 2.764944 13.566688 -1.863514 1795
2.757266 15.400460 -1.308272 2.868941 15.411770 -1.277104 1093
2.882523 15.390675 -1.342705 2.989515 15.410657 -1.281079 961
2.652616 15.384350 -1.360435 2.740046 15.411703 -1.278121 1038
3.000197 15.382242 -1.375765 3.109548 15.412894 -1.282865 785
2.753782 15.375833 -1.406523 2.875079 15.394595 -1.326920 1092
3.051034 15.100167 -1.474798 3.117481 15.142890 -1.380239 1403
2.878136 15.361376 -1.504785 2.982883 15.385900 -1.354540 418
3.070749 15.145451 -1.458307 3.105082 15.266779 -1.407933 1772
3.050836 15.282617 -1.486186 3.120077 15.378258 -1.388845 1668
2.649773 15.353687 -1.581970 2.739701 15.382169 -1.373492 339
